-5868 103 118.098 -149.621 324.5
-5868 104 118.405 -149.896 324.735
5869 104 117.949 -148.955 323.616
5869 102 117.956 -149.35 323.879
-5869 103 117.965 -149.874 324.23
-5869 104 117.972 -150.269 324.493
5870 104 118.52 -149.176 323.587
5870 102 118.247 -149.545 323.705
-5870 103 117.883 -150.036 323.863
-5870 104 117.61 -150.406 323.982
5871 104 118.876 -149.61 323.733
5871 102 118.472 -149.828 323.614
-5871 103 117.935 -150.119 323.455
-5871 104 117.531 -150.337 323.336
5872 104 118.965 -150.181 323.824
5872 102 118.607 -150.166 323.512
-5872 103 118.132 -150.146 323.097
-5872 104 117.775 -150.13 322.786
5873 104 118.81 -150.739 323.727
5873 102 118.653 -150.506 323.344
-5873 103 118.446 -150.197 322.834
-5873 104 118.289 -149.965 322.451
5874 104 118.6 -151.16 323.361
5874 102 118.69 -150.789 323.079
-5874 103 118.81 -150.295 322.704
-5874 104 118.9 -149.924 322.423
5875 104 118.496 -151.365 322.796
5875 102 118.776 -150.985 322.743
-5875 103 119.149 -150.481 322.673
-5875 104 119.429 -150.102 322.62
5876 104 118.613 -151.341 322.188
5876 102 118.957 -151.089 322.397
-5876 103 119.415 -150.755 322.674
-5876 104 119.759 -150.504 322.883
5877 104 118.978 -151.163 321.724
5877 102 119.243 -151.131 322.116
-5877 103 119.597 -151.089 322.637
-5877 104 119.863 -151.057 323.029
5878 104 119.515 -150.956 321.528
5878 102 119.604 -151.159 321.948
-5878 103 119.721 -151.43 322.506
-5878 104 119.81 -151.633 322.925
5879 104 120.098 -150.875 321.617
5879 102 119.984 -151.24 321.897
-5879 103 119.831 -151.726 322.27
-5879 104 119.717 -152.091 322.551
5880 104 120.592 -151.006 321.905
5880 102 120.333 -151.402 321.931
-5880 103 119.988 -151.93 321.965
-5880 104 119.729 -152.327 321.991
5881 104 120.929 -151.386 322.214
5881 102 120.623 -151.661 321.977
-5881 103 120.217 -152.027 321.662
-5881 104 119.912 -152.302 321.425
5882 104 121.059 -151.934 322.379
5882 102 120.832 -151.987 321.966
-5882 103 120.529 -152.058 321.417
-5882 104 120.302 -152.111 321.004
5883 104 121.07 -152.521 322.276
5883 102 120.995 -152.324 321.851
-5883 103 120.896 -152.063 321.285
-5883 104 120.822 -151.866 320.859
5884 104 121.037 -152.984 321.9
5884 102 121.142 -152.612 321.625
-5884 103 121.282 -152.117 321.259
-5884 104 121.386 -151.745 320.985
5885 104 121.084 -153.218 321.34
5885 102 121.32 -152.807 321.325
-5885 103 121.634 -152.26 321.304
-5885 104 121.87 -151.849 321.288
5886 104 121.249 -153.161 320.789
5886 102 121.549 -152.881 321.028
-5886 103 121.947 -152.507 321.345
-5886 104 122.246 -152.227 321.583
5887 104 121.608 -152.939 320.375
5887 102 121.85 -152.891 320.78
-5887 103 122.173 -152.828 321.318
-5887 104 122.416 -152.78 321.723
5888 104 122.09 -152.655 320.228
5888 102 122.204 -152.87 320.636
-5888 103 122.355 -153.155 321.178
-5888 104 122.468 -153.37 321.586
5889 104 122.648 -152.519 320.317
5889 102 122.583 -152.909 320.579
-5889 103 122.496 -153.429 320.926
-5889 104 122.43 -153.82 321.187
5890 104 123.186 -152.645 320.528
5890 102 122.947 -153.054 320.56
-5890 103 122.629 -153.597 320.602
-5890 104 122.389 -154.005 320.634
5891 104 123.611 -153.048 320.697
5891 102 123.258 -153.307 320.512
-5891 103 122.789 -153.65 320.267
-5891 104 122.437 -153.908 320.082
5892 104 123.83 -153.623 320.706
5892 102 123.478 -153.625 320.388
-5892 103 123.009 -153.628 319.965
-5892 104 122.657 -153.629 319.647
5893 104 123.814 -154.197 320.507
5893 102 123.595 -153.942 320.172
-5893 103 123.303 -153.603 319.727
-5893 104 123.084 -153.349 319.392
5894 104 123.651 -154.613 320.089
5894 102 123.646 -154.197 319.862
-5894 103 123.641 -153.643 319.559
-5894 104 123.636 -153.227 319.331
5895 104 123.459 -154.74 319.555
5895 102 123.686 -154.327 319.501
-5895 103 123.987 -153.777 319.429
-5895 104 124.214 -153.364 319.375
5896 104 123.397 -154.613 318.973
5896 102 123.77 -154.356 319.114
-5896 103 124.266 -154.015 319.302
-5896 104 124.639 -153.758 319.444
5897 104 123.544 -154.296 318.507
5897 102 123.937 -154.301 318.772
-5897 103 124.461 -154.308 319.124
-5897 104 124.854 -154.314 319.389
5898 104 123.923 -153.973 318.214
5898 102 124.196 -154.241 318.495
-5898 103 124.558 -154.599 318.869
-5898 104 124.83 -154.867 319.15
5899 104 124.47 -153.8 318.101
5899 102 124.521 -154.234 318.288
-5899 103 124.589 -154.81 318.536
-5899 104 124.64 -155.243 318.723
5900 104 125.039 -153.893 318.109
5900 102 124.853 -154.33 318.126
-5900 103 124.606 -154.91 318.147
-5900 104 124.421 -155.346 318.164
5901 104 125.51 -154.256 318.096
5901 102 125.147 -154.525 317.953
-5901 103 124.663 -154.884 317.764
-5901 104 124.299 -155.153 317.621
5902 104 125.751 -154.785 317.984
5902 102 125.345 -154.785 317.738
-5902 103 124.805 -154.784 317.412
-5902 104 124.399 -154.784 317.166
5903 104 125.755 -155.309 317.688
5903 102 125.45 -155.035 317.449
-5903 103 125.044 -154.67 317.131
-5903 104 124.74 -154.396 316.893
5904 104 125.573 -155.661 317.218
5904 102 125.478 -155.214 317.088
-5904 103 125.353 -154.62 316.915
-5904 104 125.259 -154.174 316.784
5905 104 125.338 -155.71 316.672
5905 102 125.491 -155.262 316.698
-5905 103 125.694 -154.665 316.732
-5905 104 125.847 -154.217 316.758
5906 104 125.198 -155.472 316.133
5906 102 125.538 -155.192 316.308
-5906 103 125.991 -154.819 316.541
-5906 104 126.332 -154.539 316.717
5907 104 125.263 -155.042 315.727
5907 102 125.67 -155.039 315.972
-5907 103 126.21 -155.034 316.298
-5907 104 126.616 -155.031 316.543
5908 104 125.571 -154.596 315.502
5908 102 125.898 -154.872 315.707
-5908 103 126.332 -155.239 315.981
-5908 104 126.659 -155.515 316.187
5909 104 126.064 -154.307 315.458
5909 102 126.204 -154.756 315.517
-5909 103 126.39 -155.354 315.595
-5909 104 126.53 -155.804 315.654
5910 104 126.645 -154.285 315.466
5910 102 126.548 -154.735 315.35
-5910 103 126.419 -155.333 315.195
-5910 104 126.322 -155.783 315.079
5911 104 127.168 -154.54 315.393
5911 102 126.869 -154.817 315.151
-5911 103 126.47 -155.185 314.828
-5911 104 126.17 -155.462 314.586
5912 104 127.498 -154.963 315.167
5912 102 127.112 -154.959 314.892
-5912 103 126.598 -154.953 314.526
-5912 104 126.211 -154.949 314.251
5913 104 127.631 -155.342 314.711
5913 102 127.281 -155.066 314.547
-5913 103 126.816 -154.699 314.33
-5913 104 126.466 -154.424 314.166
5914 104 127.566 -155.514 314.111
5914 102 127.37 -155.084 314.149
-5914 103 127.108 -154.511 314.198
-5914 104 126.912 -154.081 314.236
5915 104 127.419 -155.355 313.504
5915 102 127.43 -154.953 313.755
-5915 103 127.445 -154.417 314.088
-5915 104 127.457 -154.014 314.339
5916 104 127.294 -154.894 313.07
5916 102 127.503 -154.684 313.441
-5916 103 127.781 -154.406 313.934
-5916 104 127.99 -154.197 314.305
5917 104 127.299 -154.265 312.921
5917 102 127.629 -154.333 313.255
-5917 103 128.069 -154.424 313.699
-5917 104 128.399 -154.492 314.033
5918 104 127.442 -153.717 313.123
5918 102 127.815 -153.989 313.234
-5918 103 128.312 -154.35 313.381
-5918 104 128.685 -154.621 313.491
5919 104 127.771 -153.42 313.493
5919 102 128.07 -153.733 313.3
-5919 103 128.468 -154.151 313.044
-5919 104 128.767 -154.464 312.851
5920 104 128.29 -153.364 313.768
5920 102 128.398 -153.558 313.349
-5920 103 128.542 -153.816 312.791
-5920 104 128.65 -154.011 312.372
5921 104 128.922 -153.419 313.741
5921 102 128.768 -153.416 313.292
-5921 103 128.564 -153.411 312.695
-5921 104 128.411 -153.407 312.246
5922 104 129.447 -153.425 313.356
5922 102 129.086 -153.251 313.103
-5922 103 128.605 -153.019 312.766
-5922 104 128.244 -152.845 312.512
5923 104 129.698 -153.226 312.767
5923 102 129.289 -152.997 312.841
-5923 103 128.744 -152.693 312.94
-5923 104 128.335 -152.464 313.014
5924 104 129.606 -152.801 312.247
5924 102 129.35 -152.646 312.615
-5924 103 129.01 -152.439 313.105
-5924 104 128.754 -152.284 313.473
5925 104 129.268 -152.25 312.048
5925 102 129.303 -152.246 312.521
-5925 103 129.35 -152.242 313.151
-5925 104 129.386 -152.239 313.624
5926 104 128.94 -151.727 312.273
5926 102 129.256 -151.851 312.603
-5926 103 129.677 -152.016 313.044
-5926 104 129.994 -152.14 313.374
5927 104 128.858 -151.342 312.772
5927 102 129.301 -151.508 312.799
-5927 103 129.891 -151.729 312.836
-5927 104 130.335 -151.895 312.864
5928 104 129.115 -151.089 313.283
5928 102 129.476 -151.215 313.002
-5928 103 129.956 -151.382 312.628
-5928 104 130.317 -151.508 312.347
5929 104 129.636 -150.9 313.576
5929 102 129.751 -150.945 313.118
-5929 103 129.905 -151.004 312.509
-5929 104 130.02 -151.048 312.051
5930 104 130.225 -150.712 313.536
5930 102 130.046 -150.676 313.098
-5930 103 129.808 -150.629 312.516
-5930 104 129.629 -150.593 312.078
5931 104 130.68 -150.461 313.206
5931 102 130.283 -150.379 312.96
-5931 103 129.754 -150.27 312.633
-5931 104 129.356 -150.188 312.388
5932 104 130.865 -150.177 312.708
5932 102 130.405 -150.069 312.748
-5932 103 129.793 -149.927 312.802
-5932 104 129.332 -149.819 312.843
5933 104 130.749 -149.843 312.234
5933 102 130.404 -149.737 312.541
-5933 103 129.944 -149.594 312.95
-5933 104 129.599 -149.487 313.257
5934 104 130.416 -149.507 311.953
5934 102 130.31 -149.403 312.404
-5934 103 130.168 -149.265 313.003
-5934 104 130.061 -149.161 313.453
5935 104 130.01 -149.16 311.921
5935 102 130.181 -149.066 312.353
-5935 103 130.41 -148.941 312.928
-5935 104 130.582 -148.847 313.36
5936 104 129.695 -148.773 312.108
5936 102 130.084 -148.718 312.375
-5936 103 130.601 -148.644 312.729
-5936 104 130.989 -148.589 312.996
5937 104 129.594 -148.31 312.387
5937 102 130.066 -148.344 312.414
-5937 103 130.694 -148.39 312.449
-5937 104 131.167 -148.425 312.476
5938 104 129.751 -147.77 312.582
5938 102 130.147 -147.951 312.394
-5938 103 130.675 -148.191 312.145
-5938 104 131.071 -148.372 311.957
5939 104 130.15 -147.279 312.588
5939 102 130.324 -147.589 312.274
-5939 103 130.556 -148.002 311.857
-5939 104 130.73 -148.312 311.543
5940 104 130.646 -146.99 312.355
5940 102 130.532 -147.327 312.042
-5940 103 130.38 -147.776 311.625
-5940 104 130.266 -148.113 311.311
5941 104 131.07 -146.945 311.927
5941 102 130.709 -147.172 311.72
-5941 103 130.227 -147.474 311.446
-5941 104 129.866 -147.702 311.239
5942 104 131.266 -147.048 311.351
5942 102 130.793 -147.08 311.334
-5942 103 130.163 -147.124 311.311
-5942 104 129.69 -147.156 311.294
5943 104 131.148 -147.24 310.808
5943 102 130.743 -147.038 310.952
-5943 103 130.205 -146.771 311.144
-5943 104 129.8 -146.569 311.288
5944 104 130.776 -147.317 310.369
5944 102 130.594 -146.951 310.609
-5944 103 130.352 -146.463 310.929
-5944 104 130.17 -146.097 311.169
5945 104 130.28 -147.199 310.112
5945 102 130.389 -146.794 310.334
-5945 103 130.534 -146.255 310.63
-5945 104 130.643 -145.85 310.852
5946 104 129.839 -146.815 309.952
5946 102 130.199 -146.54 310.094
-5946 103 130.678 -146.175 310.282
-5946 104 131.038 -145.9 310.424
5947 104 129.634 -146.273 309.931
5947 102 130.104 -146.217 309.911
-5947 103 130.731 -146.144 309.884
-5947 104 131.201 -146.088 309.863
5948 104 129.714 -145.692 309.859
5948 102 130.118 -145.888 309.704
-5948 103 130.654 -146.15 309.497
-5948 104 131.057 -146.346 309.342
5949 104 130.043 -145.235 309.671
5949 102 130.225 -145.613 309.449
-5949 103 130.467 -146.115 309.153
-5949 104 130.649 -146.493 308.931
5950 104 130.482 -145.007 309.321
5950 102 130.375 -145.428 309.129
-5950 103 130.233 -145.988 308.874
-5950 104 130.127 -146.408 308.682
5951 104 130.844 -145.054 308.849
5951 102 130.489 -145.357 308.76
-5951 103 130.018 -145.759 308.642
-5951 104 129.663 -146.061 308.553
5952 104 130.974 -145.285 308.307
5952 102 130.509 -145.357 308.364
-5952 103 129.89 -145.454 308.439
-5952 104 129.424 -145.527 308.495
5953 104 130.8 -145.554 307.794
5953 102 130.403 -145.372 307.98
-5953 103 129.875 -145.131 308.228
-5953 104 129.478 -144.949 308.414
5954 104 130.362 -145.713 307.402
5954 102 130.185 -145.346 307.645
-5954 103 129.95 -144.858 307.969
-5954 104 129.774 -144.491 308.213
5955 104 129.812 -145.632 307.176
5955 102 129.923 -145.218 307.38
-5955 103 130.07 -144.667 307.651
-5955 104 130.181 -144.253 307.855
5956 104 129.337 -145.305 307.122
5956 102 129.686 -144.99 307.185
-5956 103 130.15 -144.57 307.27
-5956 104 130.499 -144.255 307.334
5957 104 129.069 -144.775 307.096
5957 102 129.525 -144.683 307.002
-5957 103 130.132 -144.561 306.877
-5957 104 130.588 -144.469 306.783
5958 104 129.099 -144.193 307.046
5958 102 129.482 -144.35 306.814
-5958 103 129.992 -144.558 306.504
-5958 104 130.374 -144.715 306.272
5959 104 129.369 -143.71 306.855
5959 102 129.531 -144.054 306.571
-5959 103 129.747 -144.511 306.193
-5959 104 129.909 -144.855 305.909
5960 104 129.735 -143.446 306.491
5960 102 129.613 -143.844 306.262
-5960 103 129.451 -144.373 305.958
-5960 104 129.33 -144.77 305.73
5961 104 130.011 -143.406 305.958
5961 102 129.659 -143.717 305.891
-5961 103 129.191 -144.13 305.8
-5961 104 128.838 -144.441 305.733
5962 104 130.048 -143.553 305.378
5962 102 129.604 -143.663 305.504
-5962 103 129.013 -143.808 305.672
-5962 104 128.569 -143.918 305.798
5963 104 129.78 -143.734 304.854
5963 102 129.425 -143.615 305.145
-5963 103 128.952 -143.457 305.533
-5963 104 128.597 -143.338 305.824
5964 104 129.262 -143.816 304.507
5964 102 129.14 -143.527 304.863
-5964 103 128.979 -143.142 305.336
-5964 104 128.857 -142.852 305.692
5965 104 128.663 -143.692 304.408
5965 102 128.824 -143.344 304.689
-5965 103 129.037 -142.882 305.062
-5965 104 129.197 -142.534 305.342
5966 104 128.167 -143.335 304.516
5966 102 128.545 -143.063 304.606
-5966 103 129.048 -142.701 304.725
-5966 104 129.426 -142.428 304.815
5967 104 127.954 -142.841 304.756
5967 102 128.379 -142.716 304.587
-5967 103 128.945 -142.549 304.362
-5967 104 129.37 -142.424 304.193
5968 104 128.045 -142.3 304.935
5968 102 128.33 -142.345 304.56
-5968 103 128.71 -142.405 304.059
-5968 104 128.996 -142.451 303.683
5969 104 128.362 -141.82 304.913
5969 102 128.375 -141.985 304.468
-5969 103 128.394 -142.204 303.877
-5969 104 128.408 -142.369 303.432
5970 104 128.682 -141.418 304.6
5970 102 128.424 -141.647 304.275
-5970 103 128.081 -141.953 303.843
-5970 104 127.822 -142.183 303.518
5971 104 128.81 -141.153 304.076
5971 102 128.391 -141.366 304.008
-5971 103 127.834 -141.649 303.918
-5971 104 127.416 -141.861 303.85
5972 104 128.635 -140.991 303.511
5972 102 128.238 -141.122 303.735
-5972 103 127.71 -141.295 304.035
-5972 104 127.313 -141.426 304.26
5973 104 128.166 -140.846 303.111
5973 102 127.97 -140.876 303.542
-5973 103 127.709 -140.916 304.116
-5973 104 127.513 -140.946 304.547
5974 104 127.554 -140.731 303.021
5974 102 127.64 -140.649 303.48
-5974 103 127.755 -140.541 304.091
-5974 104 127.841 -140.46 304.55
5975 104 127.001 -140.555 303.261
5975 102 127.334 -140.394 303.559
-5975 103 127.776 -140.181 303.956
-5975 104 128.108 -140.021 304.254
5976 104 126.705 -140.323 303.724
5976 102 127.131 -140.114 303.737
-5976 103 127.697 -139.835 303.755
-5976 104 128.123 -139.626 303.768
5977 104 126.696 -139.966 304.207
5977 102 127.038 -139.79 303.929
-5977 103 127.493 -139.555 303.56
-5977 104 127.835 -139.379 303.282
5978 104 126.939 -139.518 304.513
5978 102 127.047 -139.426 304.06
-5978 103 127.191 -139.303 303.458
-5978 104 127.299 -139.211 303.005
5979 104 127.252 -139.011 304.522
5979 102 127.083 -139.04 304.079
-5979 103 126.857 -139.079 303.491
-5979 104 126.687 -139.109 303.049
5980 104 127.44 -138.509 304.243
5980 102 127.067 -138.658 303.991
-5980 103 126.57 -138.857 303.656
-5980 104 126.197 -139.006 303.404
5981 104 127.359 -138.085 303.813
5981 102 126.943 -138.309 303.849
-5981 103 126.388 -138.607 303.897
-5981 104 125.972 -138.831 303.933
5982 104 126.99 -137.794 303.421
5982 102 126.702 -138.014 303.727
-5982 103 126.319 -138.308 304.135
-5982 104 126.032 -138.528 304.441
5983 104 126.418 -137.639 303.242
5983 102 126.379 -137.774 303.695
-5983 103 126.327 -137.955 304.298
-5983 104 126.289 -138.09 304.751
5984 104 125.821 -137.596 303.37
5984 102 126.042 -137.586 303.789
-5984 103 126.337 -137.572 304.347
-5984 104 126.559 -137.561 304.766
5985 104 125.375 -137.563 303.786
5985 102 125.765 -137.402 304.004
-5985 103 126.283 -137.188 304.293
-5985 104 126.673 -137.026 304.511
5986 104 125.206 -137.448 304.35
5986 102 125.596 -137.187 304.284
-5986 103 126.116 -136.84 304.197
-5986 104 126.507 -136.579 304.131
5987 104 125.311 -137.184 304.872
5987 102 125.537 -136.914 304.554
-5987 103 125.837 -136.556 304.13
-5987 104 126.062 -136.286 303.812
5988 104 125.574 -136.753 305.186
5988 102 125.54 -136.577 304.747
-5988 103 125.494 -136.342 304.163
-5988 104 125.459 -136.166 303.724
5989 104 125.795 -136.195 305.221
5989 102 125.522 -136.195 304.833
-5989 103 125.158 -136.195 304.317
-5989 104 124.885 -136.195 303.929
5990 104 125.826 -135.647 305.005
5990 102 125.425 -135.825 304.824
-5990 103 124.892 -136.061 304.582
-5990 104 124.491 -136.238 304.401
5991 104 125.55 -135.153 304.713
5991 102 125.208 -135.472 304.792
-5991 103 124.753 -135.897 304.896
-5991 104 124.411 -136.217 304.975
5992 104 125.042 -134.901 304.477
5992 102 124.892 -135.229 304.786
-5992 103 124.692 -135.665 305.196
-5992 104 124.542 -135.993 305.505
5993 104 124.423 -134.86 304.465
5993 102 124.532 -135.072 304.875
-5993 103 124.676 -135.354 305.421
-5993 104 124.784 -135.566 305.831
5994 104 123.886 -134.974 304.73
5994 102 124.204 -134.979 305.082
-5994 103 124.626 -134.986 305.551
-5994 104 124.944 -134.991 305.904
5995 104 123.592 -135.144 305.204
5995 102 123.97 -134.916 305.378
-5995 103 124.473 -134.613 305.611
-5995 104 124.851 -134.386 305.785
5996 104 123.543 -135.188 305.795
5996 102 123.828 -134.815 305.725
-5996 103 124.207 -134.319 305.631
-5996 104 124.492 -133.947 305.56
5997 104 123.725 -135.025 306.315
5997 102 123.779 -134.635 306.05
-5997 103 123.851 -134.116 305.698
-5997 104 123.905 -133.725 305.434
5998 104 123.918 -134.613 306.681
5998 102 123.73 -134.369 306.32
-5998 103 123.48 -134.044 305.84
-5998 104 123.293 -133.8 305.479
5999 104 123.957 -134.048 306.84
5999 102 123.614 -134.055 306.512
-5999 103 123.158 -134.063 306.075
-5999 104 122.816 -134.07 305.747
6000 104 123.752 -133.477 306.821
6000 102 123.403 -133.741 306.638
-6000 103 122.939 -134.093 306.394
-6000 104 122.59 -134.357 306.211
6001 104 123.284 -133.071 306.729
6001 102 123.085 -133.502 306.738
-6001 103 122.821 -134.075 306.751
-6001 104 122.623 -134.506 306.761
6002 104 122.696 -132.971 306.627
6002 102 122.716 -133.397 306.835
-6002 103 122.741 -133.963 307.112
-6002 104 122.761 -134.389 307.32
6003 104 122.12 -133.145 306.671
6003 102 122.352 -133.403 306.994
-6003 103 122.661 -133.747 307.423
-6003 104 122.894 -134.006 307.746
6004 104 121.703 -133.491 306.916
6004 102 122.054 -133.481 307.235
-6004 103 122.52 -133.467 307.661
-6004 104 122.87 -133.456 307.981
6005 104 121.53 -133.85 307.342
6005 102 121.851 -133.57 307.55
-6005 103 122.278 -133.197 307.827
-6005 104 122.599 -132.916 308.035
6006 104 121.554 -134.039 307.904
6006 102 121.724 -133.596 307.919
-6006 103 121.951 -133.008 307.939
-6006 104 122.122 -132.565 307.954
6007 104 121.704 -133.953 308.463
6007 102 121.65 -133.515 308.289
-6007 103 121.577 -132.933 308.057
-6007 104 121.523 -132.495 307.884
6008 104 121.806 -133.595 308.921
6008 102 121.554 -133.331 308.618
-6008 103 121.218 -132.98 308.215
-6008 104 120.966 -132.716 307.912
6009 104 121.746 -133.07 309.192
6009 102 121.394 -133.082 308.873
-6009 103 120.927 -133.097 308.45
-6009 104 120.575 -133.109 308.131
6010 104 121.448 -132.549 309.277
6010 102 121.14 -132.834 309.055
-6010 103 120.731 -133.213 308.76
-6010 104 120.423 -133.498 308.538
6011 104 120.955 -132.22 309.216
6011 102 120.806 -132.669 309.178
-6011 103 120.608 -133.266 309.128
-6011 104 120.459 -133.715 309.09
6012 104 120.367 -132.178 309.133
6012 102 120.434 -132.619 309.293
-6012 103 120.524 -133.207 309.506
-6012 104 120.592 -133.648 309.666
6013 104 119.824 -132.417 309.15
6013 102 120.081 -132.682 309.448
-6013 103 120.423 -133.035 309.845
-6013 104 120.679 -133.3 310.143
6014 104 119.446 -132.824 309.353
6014 102 119.793 -132.811 309.677
-6014 103 120.254 -132.794 310.108
-6014 104 120.6 -132.781 310.431
6015 104 119.284 -133.221 309.764
6015 102 119.59 -132.935 309.988
-6015 103 119.997 -132.556 310.285
-6015 104 120.303 -132.27 310.509
6016 104 119.308 -133.433 310.321
6016 102 119.461 -132.985 310.356
-6016 103 119.663 -132.389 310.401
-6016 104 119.815 -131.941 310.435
6017 104 119.431 -133.358 310.895
6017 102 119.369 -132.918 310.728
-6017 103 119.288 -132.333 310.506
-6017 104 119.227 -131.893 310.339
6018 104 119.483 -133.003 311.381
6018 102 119.245 -132.743 311.063
-6018 103 118.93 -132.397 310.64
-6018 104 118.692 -132.137 310.322
6019 104 119.394 -132.474 311.655
6019 102 119.067 -132.492 311.312
-6019 103 118.631 -132.516 310.855
-6019 104 118.304 -132.534 310.512
6020 104 119.101 -131.953 311.699
6020 102 118.804 -132.241 311.466
-6020 103 118.409 -132.625 311.156
-6020 104 118.113 -132.913 310.924
6021 104 118.648 -131.622 311.558
6021 102 118.474 -132.063 311.542
-6021 103 118.244 -132.65 311.522
-6021 104 118.071 -133.092 311.507
6022 104 118.087 -131.558 311.403
6022 102 118.103 -131.984 311.611
-6022 103 118.124 -132.551 311.887
-6022 104 118.14 -132.977 312.095
6023 104 117.56 -131.778 311.339
6023 102 117.737 -132.019 311.707
-6023 103 117.974 -132.339 312.197
-6023 104 118.152 -132.579 312.565
6024 104 117.141 -132.123 311.509
6024 102 117.418 -132.088 311.893
-6024 103 117.786 -132.042 312.404
-6024 104 118.062 -132.008 312.788
6025 104 116.844 -132.413 311.932
6025 102 117.142 -132.129 312.168
-6025 103 117.538 -131.751 312.483
-6025 104 117.836 -131.467 312.719
6026 104 116.673 -132.473 312.516
6026 102 116.915 -132.065 312.496
-6026 103 117.238 -131.523 312.469
-6026 104 117.48 -131.116 312.448
6027 104 116.635 -132.249 313.082
6027 102 116.742 -131.878 312.806
-6027 103 116.884 -131.384 312.44
-6027 104 116.991 -131.013 312.164
6028 104 116.645 -131.775 313.467
6028 102 116.586 -131.586 313.036
-6028 103 116.508 -131.335 312.462
-6028 104 116.45 -131.146 312.031
6029 104 116.636 -131.178 313.566
6029 102 116.425 -131.237 313.145
-6029 103 116.145 -131.316 312.585
-6029 104 115.935 -131.376 312.164
6030 104 116.511 -130.624 313.383
6030 102 116.217 -130.903 313.135
-6030 103 115.828 -131.274 312.805
-6030 104 115.535 -131.553 312.557
6031 104 116.219 -130.255 313.027
6031 102 115.943 -130.64 313.05
-6031 103 115.576 -131.153 313.081
-6031 104 115.3 -131.538 313.104
6032 104 115.78 -130.146 312.67
6032 102 115.609 -130.48 312.961
-6032 103 115.382 -130.924 313.348
-6032 104 115.211 -131.258 313.638
6033 104 115.228 -130.229 312.495
6033 102 115.233 -130.39 312.941
-6033 103 115.24 -130.603 313.535
-6033 104 115.245 -130.764 313.981
6034 104 114.682 -130.412 312.594
6034 102 114.86 -130.338 313.027
-6034 103 115.098 -130.241 313.604
-6034 104 115.277 -130.167 314.037
6035 104 114.236 -130.538 312.964
6035 102 114.527 -130.263 313.218
-6035 103 114.915 -129.897 313.555
-6035 104 115.206 -129.622 313.809
6036 104 113.968 -130.484 313.492
6036 102 114.265 -130.115 313.47
-6036 103 114.661 -129.624 313.439
-6036 104 114.958 -129.255 313.416
6037 104 113.876 -130.184 314.008
6037 102 114.074 -129.868 313.715
-6037 103 114.337 -129.448 313.324
-6037 104 114.535 -129.132 313.031
6038 104 113.926 -129.686 314.336
6038 102 113.942 -129.537 313.885
-6038 103 113.964 -129.339 313.286
-6038 104 113.98 -129.191 312.836
6039 104 113.985 -129.103 314.371
6039 102 113.811 -129.176 313.936
-6039 103 113.579 -129.274 313.357
-6039 104 113.405 -129.348 312.922
6040 104 113.923 -128.545 314.138
6040 102 113.635 -128.821 313.881
-6040 103 113.252 -129.189 313.54
-6040 104 112.964 -129.465 313.283
6041 104 113.703 -128.195 313.729
6041 102 113.393 -128.553 313.753
-6041 103 112.981 -129.03 313.785
-6041 104 112.671 -129.389 313.809
6042 104 113.277 -128.052 313.341
6042 102 113.072 -128.363 313.634
-6042 103 112.799 -128.777 314.025
-6042 104 112.593 -129.088 314.318
6043 104 112.719 -128.105 313.138
6043 102 112.698 -128.251 313.589
-6043 103 112.67 -128.446 314.189
-6043 104 112.65 -128.592 314.639
6044 104 112.145 -128.251 313.224
6044 102 112.318 -128.177 313.659
-6044 103 112.549 -128.078 314.238
-6044 104 112.722 -128.004 314.674
6045 104 111.669 -128.338 313.592
6045 102 111.977 -128.079 313.844
-6045 103 112.387 -127.735 314.178
-6045 104 112.695 -127.476 314.43
6046 104 111.425 -128.279 314.119
6046 102 111.733 -127.919 314.094
-6046 103 112.142 -127.439 314.06
-6046 104 112.449 -127.079 314.034
6047 104 111.36 -127.986 314.636
6047 102 111.557 -127.671 314.34
-6047 103 111.818 -127.251 313.948
-6047 104 112.014 -126.936 313.652
6048 104 111.449 -127.503 314.964
6048 102 111.445 -127.343 314.518
-6048 103 111.439 -127.13 313.923
-6048 104 111.435 -126.97 313.477
6049 104 111.537 -126.921 315.009
6049 102 111.333 -126.977 314.585
-6049 103 111.061 -127.052 314.02
-6049 104 110.857 -127.108 313.596
6050 104 111.484 -126.37 314.792
6050 102 111.166 -126.625 314.551
-6050 103 110.741 -126.966 314.23
-6050 104 110.422 -127.221 313.989
6051 104 111.221 -125.978 314.425
6051 102 110.914 -126.338 314.459
-6051 103 110.505 -126.817 314.504
-6051 104 110.198 -127.177 314.538
6052 104 110.756 -125.813 314.086
6052 102 110.582 -126.142 314.38
-6052 103 110.35 -126.579 314.772
-6052 104 110.176 -126.907 315.066
6053 104 110.176 -125.856 313.939
6053 102 110.204 -126.029 314.38
-6053 103 110.241 -126.259 314.966
-6053 104 110.269 -126.432 315.407
6054 104 109.619 -126.004 314.08
6054 102 109.839 -125.954 314.497
-6054 103 110.131 -125.889 315.053
-6054 104 110.35 -125.84 315.471
6055 104 109.187 -126.118 314.493
6055 102 109.52 -125.872 314.724
-6055 103 109.964 -125.544 315.031
-6055 104 110.297 -125.298 315.263
6056 104 109.002 -126.094 315.046
6056 102 109.304 -125.73 315.009
-6056 103 109.705 -125.245 314.96
-6056 104 110.007 -124.881 314.923
6057 104 108.983 -125.827 315.584
6057 102 109.151 -125.496 315.289
-6057 103 109.374 -125.056 314.895
-6057 104 109.542 -124.725 314.599
6058 104 109.095 -125.356 315.93
6058 102 109.053 -125.176 315.493
-6058 103 108.998 -124.937 314.912
-6058 104 108.956 -124.757 314.475
6059 104 109.175 -124.78 315.995
6059 102 108.94 -124.82 315.585
-6059 103 108.627 -124.873 315.039
-6059 104 108.392 -124.912 314.629
6060 104 109.093 -124.206 315.811
6060 102 108.765 -124.46 315.58
-6060 103 108.329 -124.797 315.273
-6060 104 108.001 -125.051 315.042
6061 104 108.817 -123.822 315.469
6061 102 108.51 -124.181 315.512
-6061 103 108.101 -124.659 315.569
-6061 104 107.794 -125.018 315.611
6062 104 108.324 -123.636 315.172
6062 102 108.171 -123.977 315.464
-6062 103 107.968 -124.43 315.853
-6062 104 107.815 -124.772 316.145
6063 104 107.742 -123.688 315.052
6063 102 107.794 -123.873 315.486
-6063 103 107.863 -124.119 316.063
-6063 104 107.914 -124.304 316.497
6064 104 107.199 -123.85 315.213
6064 102 107.435 -123.808 315.622
-6064 103 107.749 -123.753 316.167
-6064 104 107.986 -123.711 316.576
6065 104 106.788 -123.982 315.638
6065 102 107.127 -123.737 315.863
-6065 103 107.577 -123.411 316.162
-6065 104 107.915 -123.165 316.387
6066 104 106.622 -123.972 316.198
6066 102 106.918 -123.603 316.159
-6066 103 107.313 -123.113 316.107
-6066 104 107.609 -122.745 316.067
6067 104 106.618 -123.716 316.742
6067 102 106.772 -123.377 316.447
-6067 103 106.977 -122.927 316.056
-6067 104 107.132 -122.588 315.761
6068 104 106.735 -123.251 317.093
6068 102 106.678 -123.063 316.661
-6068 103 106.601 -122.813 316.087
-6068 104 106.543 -122.624 315.656
6069 104 106.802 -122.667 317.172
6069 102 106.56 -122.706 316.766
-6069 103 106.237 -122.759 316.226
-6069 104 105.995 -122.798 315.82
6070 104 106.727 -122.12 316.987
6070 102 106.385 -122.365 316.766
-6070 103 105.931 -122.691 316.473
-6070 104 105.589 -122.936 316.253
6071 104 106.409 -121.697 316.682
6071 102 106.117 -122.069 316.722
-6071 103 105.728 -122.563 316.776
-6071 104 105.436 -122.935 316.817
6072 104 105.909 -121.53 316.396
6072 102 105.773 -121.88 316.685
-6072 103 105.592 -122.347 317.07
-6072 104 105.456 -122.697 317.359
6073 104 105.321 -121.586 316.299
6073 102 105.394 -121.782 316.725
-6073 103 105.491 -122.042 317.292
-6073 104 105.563 -122.237 317.718
6074 104 104.779 -121.768 316.478
6074 102 105.033 -121.734 316.877
-6074 103 105.372 -121.688 317.407
-6074 104 105.626 -121.654 317.806
6075 104 104.417 -121.944 316.904
6075 102 104.745 -121.684 317.129
-6075 103 105.181 -121.338 317.427
-6075 104 105.508 -121.079 317.652
6076 104 104.243 -121.948 317.486
6076 102 104.529 -121.572 317.443
-6076 103 104.908 -121.07 317.387
-6076 104 105.193 -120.694 317.344
6077 104 104.291 -121.731 318.027
6077 102 104.404 -121.366 317.745
-6077 103 104.554 -120.881 317.37
-6077 104 104.667 -120.517 317.088
6078 104 104.395 -121.281 318.395
6078 102 104.299 -121.074 317.979
-6078 103 104.172 -120.799 317.425
-6078 104 104.076 -120.593 317.009
6079 104 104.44 -120.7 318.498
6079 102 104.171 -120.731 318.109
-6079 103 103.813 -120.771 317.591
-6079 104 103.543 -120.802 317.201
6080 104 104.291 -120.126 318.37
6080 102 103.966 -120.391 318.15
-6080 103 103.533 -120.745 317.857
-6080 104 103.207 -121.01 317.636
6081 104 103.923 -119.729 318.106
6081 102 103.67 -120.129 318.139
-6081 103 103.334 -120.662 318.182
-6081 104 103.082 -121.062 318.214
6082 104 103.368 -119.578 317.891
6082 102 103.301 -119.968 318.152
-6082 103 103.213 -120.487 318.5
-6082 104 103.146 -120.877 318.762
6083 104 102.775 -119.695 317.842
6083 102 102.915 -119.921 318.235
-6083 103 103.101 -120.222 318.758
-6083 104 103.241 -120.447 319.151
6084 104 102.288 -119.968 318.042
6084 102 102.572 -119.938 318.421
-6084 103 102.95 -119.898 318.925
-6084 104 103.233 -119.868 319.304
6085 104 101.968 -120.225 318.492
6085 102 102.293 -119.954 318.707
-6085 103 102.726 -119.594 318.992
-6085 104 103.051 -119.324 319.207
6086 104 101.894 -120.322 319.062
6086 102 102.116 -119.903 319.045
-6086 103 102.412 -119.346 319.021
-6086 104 102.634 -118.927 319.004
6087 104 101.945 -120.154 319.629
6087 102 101.987 -119.752 319.381
-6087 103 102.042 -119.217 319.051
-6087 104 102.083 -118.814 318.803
6088 104 102.02 -119.73 320.041
6088 102 101.867 -119.499 319.656
-6088 103 101.662 -119.191 319.145
-6088 104 101.509 -118.96 318.76
6089 104 101.996 -119.168 320.203
6089 102 101.704 -119.195 319.83
-6089 103 101.316 -119.231 319.333
-6089 104 101.024 -119.258 318.96
6090 104 101.789 -118.614 320.132
6090 102 101.471 -118.89 319.912
-6090 103 101.05 -119.257 319.62
-6090 104 100.732 -119.533 319.4
6091 104 101.364 -118.227 319.934
6091 102 101.152 -118.652 319.944
-6091 103 100.87 -119.216 319.958
-6091 104 100.658 -119.641 319.968
6092 104 100.827 -118.133 319.719
6092 102 100.785 -118.535 319.967
-6092 103 100.728 -119.07 320.298
-6092 104 100.686 -119.472 320.546
6093 104 100.255 -118.279 319.674
6093 102 100.406 -118.509 320.06
-6093 103 100.607 -118.816 320.573
-6093 104 100.758 -119.046 320.96
6094 104 99.7778 -118.57 319.872
6094 102 100.065 -118.541 320.248
-6094 103 100.447 -118.503 320.749
-6094 104 100.734 -118.474 321.126
6095 104 99.4805 -118.84 320.309
6095 102 99.7956 -118.564 320.531
-6095 103 100.215 -118.196 320.827
-6095 104 100.53 -117.92 321.05
6096 104 99.3782 -118.932 320.888
6096 102 99.6038 -118.515 320.87
-6096 103 99.9039 -117.96 320.846
-6096 104 100.129 -117.543 320.828
6097 104 99.4009 -118.747 321.465
6097 102 99.4615 -118.355 321.206
-6097 103 99.5422 -117.832 320.862
-6097 104 99.6028 -117.439 320.603
6098 104 99.4755 -118.31 321.871
6098 102 99.3424 -118.087 321.474
-6098 103 99.1653 -117.791 320.946
-6098 104 99.0322 -117.568 320.549
6099 104 99.458 -117.738 322.019
6099 102 99.1826 -117.77 321.634
-6099 103 98.8162 -117.812 321.122
-6099 104 98.5408 -117.844 320.737
6100 104 99.2781 -117.179 321.917
6100 102 98.9601 -117.451 321.694
-6100 103 98.5371 -117.813 321.396
-6100 104 98.2192 -118.084 321.172
6101 104 98.907 -116.797 321.663
6101 102 98.6606 -117.201 321.689
-6101 103 98.3328 -117.74 321.724
-6101 104 98.0864 -118.144 321.75
6102 104 98.3926 -116.675 321.411
6102 102 98.3029 -117.054 321.682
-6102 103 98.1834 -117.558 322.043
-6102 104 98.0936 -117.937 322.314
6103 104 97.8287 -116.795 321.319
6103 102 97.9245 -117.001 321.735
-6103 103 98.0519 -117.276 322.289
-6103 104 98.1476 -117.482 322.705
6104 104 97.32 -117.037 321.485
6104 102 97.5673 -116.995 321.888
-6104 103 97.8964 -116.94 322.424
-6104 104 98.1438 -116.899 322.826
6105 104 96.9718 -117.243 321.896
6105 102 97.2762 -116.968 322.134
-6105 103 97.6811 -116.601 322.451
-6105 104 97.9854 -116.326 322.689
6106 104 96.7768 -117.259 322.459
6106 102 97.0422 -116.866 322.434
-6106 103 97.3954 -116.344 322.4
-6106 104 97.6609 -115.952 322.375
6107 104 96.7068 -116.996 323.011
6107 102 96.8573 -116.651 322.723
-6107 103 97.0576 -116.191 322.339
-6107 104 97.2081 -115.846 322.051
6108 104 96.7278 -116.501 323.373
6108 102 96.7108 -116.334 322.929
-6108 103 96.6883 -116.112 322.339
-6108 104 96.6713 -115.945 321.895
6109 104 96.7107 -115.887 323.445
6109 102 96.5454 -115.971 323.009
-6109 103 96.3254 -116.082 322.428
-6109 104 96.1601 -116.165 321.991
6110 104 96.627 -115.358 323.215
6110 102 96.3498 -115.642 322.955
-6110 103 95.9809 -116.021 322.611
-6110 104 95.7037 -116.306 322.352
6111 104 96.3882 -115.004 322.809
6111 102 96.0954 -115.377 322.827
-6111 103 95.7058 -115.873 322.851
-6111 104 95.413 -116.246 322.869
6112 104 95.9753 -114.889 322.403
6112 102 95.7716 -115.205 322.693
-6112 103 95.5006 -115.625 323.078
-6112 104 95.2969 -115.941 323.368
6113 104 95.4582 -115.001 322.164
6113 102 95.4039 -115.127 322.618
-6113 103 95.3317 -115.295 323.222
-6113 104 95.2774 -115.421 323.676
6114 104 94.89 -115.163 322.207
6114 102 95.0199 -115.063 322.652
-6114 103 95.1926 -114.93 323.244
-6114 104 95.3224 -114.831 323.69
6115 104 94.4176 -115.258 322.525
6115 102 94.6772 -114.966 322.794
-6115 103 95.0226 -114.577 323.151
-6115 104 95.2822 -114.285 323.42
6116 104 94.0626 -115.14 323.004
6116 102 94.3799 -114.788 322.993
-6116 103 94.8022 -114.319 322.978
-6116 104 95.1195 -113.966 322.966
6117 104 93.9181 -114.794 323.472
6117 102 94.1707 -114.513 323.186
-6117 103 94.5067 -114.139 322.804
-6117 104 94.7593 -113.857 322.518
6118 104 93.9267 -114.263 323.754
6118 102 94.0233 -114.163 323.3
-6118 103 94.1519 -114.03 322.697
-6118 104 94.2486 -113.931 322.243
6119 104 94.0142 -113.67 323.747
6119 102 93.9119 -113.784 323.298
-6119 103 93.7758 -113.934 322.7
-6119 104 93.6736 -114.048 322.251
6120 104 94.0456 -113.154 323.452
6120 102 93.779 -113.434 323.177
-6120 103 93.4243 -113.806 322.811
-6120 104 93.1577 -114.086 322.536
6121 104 93.9381 -112.84 322.979
6121 102 93.592 -113.165 322.981
-6121 103 93.1314 -113.596 322.984
-6121 104 92.7853 -113.921 322.986
6122 104 93.624 -112.727 322.506
6122 102 93.3269 -112.971 322.784
-6122 103 92.9317 -113.295 323.154
-6122 104 92.6346 -113.539 323.432
6123 104 93.1203 -112.747 322.205
6123 102 92.9907 -112.825 322.655
-6123 103 92.8183 -112.928 323.253
-6123 104 92.6887 -113.006 323.703
6124 104 92.5287 -112.805 322.182
6124 102 92.621 -112.694 322.633
-6124 103 92.7438 -112.547 323.235
-6124 104 92.8361 -112.436 323.687
6125 104 91.9973 -112.78 322.44
6125 102 92.28 -112.526 322.724
-6125 103 92.6562 -112.188 323.102
-6125 104 92.9388 -111.934 323.386
6126 104 91.639 -112.586 322.875
6126 102 92.0093 -112.29 322.883
-6126 103 92.502 -111.895 322.894
-6126 104 92.8723 -111.599 322.902
6127 104 91.4955 -112.179 323.309
6127 102 91.8259 -111.969 323.041
-6127 103 92.2655 -111.69 322.684
-6127 104 92.5959 -111.48 322.416
6128 104 91.5952 -111.654 323.579
6128 102 91.7474 -111.592 323.134
-6128 103 91.9499 -111.509 322.542
-6128 104 92.1021 -111.447 322.097
6129 104 91.8017 -111.104 323.568
6129 102 91.714 -111.205 323.113
-6129 103 91.5972 -111.341 322.508
-6129 104 91.5094 -111.442 322.053
6130 104 91.979 -110.636 323.274
6130 102 91.6741 -110.847 322.979
-6130 103 91.2685 -111.129 322.586
-6130 104 90.9636 -111.341 322.291
6131 104 91.9843 -110.312 322.799
6131 102 91.571 -110.543 322.772
-6131 103 91.0211 -110.851 322.737
-6131 104 90.6079 -111.083 322.71
6132 104 91.7387 -110.118 322.306
6132 102 91.3741 -110.288 322.558
-6132 103 90.889 -110.512 322.893
-6132 104 90.5244 -110.682 323.145
6133 104 91.2719 -110.035 321.965
6133 102 91.0916 -110.076 322.402
-6133 103 90.8517 -110.132 322.983
-6133 104 90.6714 -110.174 323.42
6134 104 90.6985 -109.938 321.897
6134 102 90.7767 -109.853 322.357
-6134 103 90.8808 -109.739 322.969
-6134 104 90.9591 -109.653 323.429
6135 104 90.1632 -109.758 322.106
6135 102 90.4798 -109.596 322.421
-6135 103 90.9011 -109.381 322.839
-6135 104 91.2177 -109.22 323.153
6136 104 89.8226 -109.434 322.506
6136 102 90.2679 -109.279 322.56
-6136 103 90.8604 -109.074 322.633
-6136 104 91.3057 -108.92 322.688
6137 104 89.7795 -109.015 322.942
6137 102 90.1856 -108.918 322.717
-6137 103 90.7258 -108.788 322.417
-6137 104 91.1319 -108.691 322.192
6138 104 90.0045 -108.552 323.242
6138 102 90.2187 -108.536 322.819
-6138 103 90.5036 -108.515 322.256
-6138 104 90.7177 -108.499 321.833
6139 104 90.3767 -108.12 323.285
6139 102 90.3158 -108.17 322.817
-6139 103 90.2348 -108.236 322.195
-6139 104 90.1739 -108.285 321.727
6140 104 90.7381 -107.75 323.055
6140 102 90.4212 -107.822 322.709
-6140 103 89.9997 -107.918 322.249
-6140 104 89.6829 -107.99 321.904
6141 104 90.9308 -107.471 322.626
6141 102 90.4694 -107.51 322.523
-6141 103 89.8555 -107.561 322.385
-6141 104 89.3941 -107.6 322.282
6142 104 90.8753 -107.206 322.149
6142 102 90.4327 -107.198 322.32
-6142 103 89.8439 -107.189 322.547
-6142 104 89.4014 -107.182 322.718
6143 104 90.5889 -106.908 321.77
6143 102 90.3175 -106.876 322.157
-6143 103 89.9563 -106.833 322.673
-6143 104 89.6848 -106.8 323.061
6144 104 90.1755 -106.536 321.612
6144 102 90.1648 -106.525 322.086
-6144 103 90.1504 -106.511 322.717
-6144 104 90.1397 -106.5 323.191
6145 104 89.7891 -106.115 321.725
6145 102 90.0375 -106.151 322.127
-6145 103 90.3679 -106.199 322.663
-6145 104 90.6163 -106.235 323.065
6146 104 89.5594 -105.694 322.056
6146 102 89.9807 -105.782 322.256
-6146 103 90.5412 -105.899 322.522
-6146 104 90.9625 -105.986 322.721
6147 104 89.5759 -105.312 322.495
6147 102 90.0297 -105.433 322.428
-6147 103 90.6335 -105.594 322.339
-6147 104 91.0872 -105.715 322.272
6148 104 89.8479 -105.013 322.901
6148 102 90.1907 -105.117 322.59
-6148 103 90.6468 -105.255 322.176
-6148 104 90.9896 -105.359 321.865
6149 104 90.2977 -104.79 323.142
6149 102 90.4322 -104.831 322.688
-6149 103 90.6111 -104.885 322.085
-6149 104 90.7456 -104.925 321.632
6150 104 90.8233 -104.628 323.154
6150 102 90.7109 -104.574 322.697
-6150 103 90.5613 -104.501 322.088
-6150 104 90.4488 -104.447 321.63
6151 104 91.2829 -104.47 322.937
6151 102 90.9684 -104.322 322.614
-6151 103 90.5501 -104.125 322.184
-6151 104 90.2356 -103.977 321.861
6152 104 91.5954 -104.238 322.571
6152 102 91.1756 -104.039 322.475
-6152 103 90.617 -103.775 322.347
-6152 104 90.1972 -103.576 322.25
6153 104 91.7076 -103.93 322.159
6153 102 91.3049 -103.735 322.317
-6153 103 90.7692 -103.475 322.526
-6153 104 90.3665 -103.279 322.683
6154 104 91.6584 -103.521 321.84
6154 102 91.3777 -103.388 322.199
-6154 103 91.0043 -103.212 322.676
-6154 104 90.7237 -103.08 323.035
6155 104 91.5015 -103.033 321.679
6155 102 91.4127 -103.014 322.145
-6155 103 91.2945 -102.989 322.764
-6155 104 91.2057 -102.97 323.23
6156 104 91.3424 -102.538 321.725
6156 102 91.4511 -102.641 322.176
-6156 103 91.5958 -102.777 322.775
-6156 104 91.7045 -102.88 323.225
6157 104 91.2301 -102.065 321.974
6157 102 91.5136 -102.28 322.288
-6157 103 91.8907 -102.565 322.706
-6157 104 92.1741 -102.78 323.02
6158 104 91.2648 -101.682 322.356
6158 102 91.6414 -101.952 322.457
-6158 103 92.1424 -102.312 322.592
-6158 104 92.519 -102.582 322.693
6159 104 91.4609 -101.431 322.791
6159 102 91.8346 -101.686 322.648
-6159 103 92.3317 -102.025 322.457
-6159 104 92.7053 -102.28 322.314
6160 104 91.8312 -101.314 323.174
6160 102 92.101 -101.475 322.819
-6160 103 92.4598 -101.69 322.346
-6160 104 92.7296 -101.852 321.991
6161 104 92.3134 -101.282 323.385
6161 102 92.415 -101.301 322.922
-6161 103 92.5503 -101.327 322.306
-6161 104 92.652 -101.346 321.843
6162 104 92.8466 -101.287 323.386
6162 102 92.7528 -101.145 322.943
-6162 103 92.628 -100.955 322.354
-6162 104 92.5342 -100.813 321.911
6163 104 93.3386 -101.224 323.182
6163 102 93.0798 -100.958 322.886
-6163 103 92.7354 -100.605 322.492
-6163 104 92.4766 -100.339 322.196
6164 104 93.7055 -101.051 322.829
6164 102 93.3569 -100.735 322.769
-6164 103 92.8931 -100.315 322.689
-6164 104 92.5445 -99.9985 322.629
6165 104 93.9092 -100.72 322.445
6165 102 93.5714 -100.451 322.641
-6165 103 93.122 -100.093 322.903
-6165 104 92.7842 -99.8243 323.099
6166 104 93.9531 -100.25 322.164
6166 102 93.7243 -100.114 322.557
-6166 103 93.4197 -99.9326 323.079
-6166 104 93.1909 -99.7965 323.472
6167 104 93.8939 -99.7002 322.086
6167 102 93.8385 -99.7467 322.555
-6167 103 93.7648 -99.8084 323.179
-6167 104 93.7095 -99.8549 323.647
6168 104 93.8174 -99.1658 322.255
6168 102 93.9485 -99.3879 322.653
-6168 103 94.123 -99.6835 323.183
-6168 104 94.2542 -99.9057 323.581
6169 104 93.8162 -98.746 322.64
6169 102 94.0907 -99.077 322.84
-6169 103 94.4561 -99.5175 323.106
-6169 104 94.7307 -99.8485 323.306
6170 104 93.9663 -98.5018 323.128
6170 102 94.2955 -98.8383 323.07
-6170 103 94.7337 -99.286 322.992
-6170 104 95.0629 -99.6225 322.934
6171 104 94.2784 -98.4725 323.605
6171 102 94.5638 -98.6923 323.296
-6171 103 94.9435 -98.9848 322.885
-6171 104 95.2289 -99.2046 322.577
6172 104 94.7496 -98.5574 323.902
6172 102 94.9 -98.5883 323.454
-6172 103 95.1001 -98.6294 322.856
-6172 104 95.2506 -98.6604 322.407
6173 104 95.3037 -98.6743 323.955
6173 102 95.271 -98.4989 323.515
-6173 103 95.2275 -98.2654 322.93
-6173 104 95.1947 -98.09 322.491
6174 104 95.8334 -98.7045 323.759
6174 102 95.6302 -98.381 323.478
-6174 103 95.3598 -97.9505 323.104
-6174 104 95.1566 -97.627 322.823
6175 104 96.2555 -98.546 323.404
6175 102 95.9499 -98.1838 323.381
-6175 103 95.5433 -97.702 323.35
-6175 104 95.2377 -97.3399 323.327
6176 104 96.5102 -98.1748 323.04
6176 102 96.2001 -97.9074 323.28
-6176 103 95.7876 -97.5517 323.599
-6176 104 95.4775 -97.2844 323.839
6177 104 96.5867 -97.6367 322.818
6177 102 96.3821 -97.56 323.239
-6177 103 96.1098 -97.458 323.8
-6177 104 95.9052 -97.3814 324.221
6178 104 96.5381 -97.0491 322.85
6178 102 96.5138 -97.1931 323.302
-6178 103 96.4814 -97.3848 323.902
-6178 104 96.457 -97.5288 324.353
6179 104 96.4668 -96.5626 323.148
6179 102 96.6308 -96.8704 323.469
-6179 103 96.8491 -97.2799 323.897
-6179 104 97.0132 -97.5877 324.219
6180 104 96.4978 -96.25 323.623
6180 102 96.7911 -96.6123 323.711
-6180 103 97.1813 -97.0942 323.829
-6180 104 97.4746 -97.4565 323.917
6181 104 96.6848 -96.1364 324.142
6181 102 97.0132 -96.4342 323.973
-6181 103 97.45 -96.8305 323.749
-6181 104 97.7784 -97.1284 323.58
6182 104 97.023 -96.2021 324.567
6182 102 97.2922 -96.3336 324.199
-6182 103 97.6504 -96.5086 323.71
-6182 104 97.9196 -96.6401 323.342
6183 104 97.5137 -96.3424 324.807
6183 102 97.6354 -96.2592 324.356
-6183 103 97.7975 -96.1485 323.756
-6183 104 97.9193 -96.0654 323.305
6184 104 98.0487 -96.4375 324.807
6184 102 97.9971 -96.1681 324.42
-6184 103 97.9283 -95.8097 323.905
-6184 104 97.8767 -95.5403 323.518
6185 104 98.5656 -96.4018 324.607
6185 102 98.3482 -96.031 324.406
-6185 103 98.059 -95.5376 324.139
-6185 104 97.8417 -95.1668 323.938
6186 104 98.9713 -96.1641 324.314
6186 102 98.6589 -95.8102 324.361
-6186 103 98.2433 -95.3392 324.423
-6186 104 97.9309 -94.9852 324.469
6187 104 99.2255 -95.733 324.052
6187 102 98.9065 -95.5188 324.33
-6187 103 98.4822 -95.2338 324.7
-6187 104 98.1633 -95.0196 324.979
6188 104 99.3209 -95.1752 323.954
6188 102 99.0917 -95.179 324.37
-6188 103 98.7869 -95.184 324.922
-6188 104 98.5577 -95.1877 325.338
6189 104 99.3009 -94.6156 324.097
6189 102 99.2312 -94.84 324.509
-6189 103 99.1385 -95.1386 325.057
-6189 104 99.0688 -95.363 325.469
6190 104 99.2524 -94.1757 324.478
6190 102 99.3598 -94.5507 324.748
-6190 103 99.5027 -95.0498 325.107
-6190 104 99.6102 -95.4248 325.377
6191 104 99.243 -93.9634 325.017
6191 102 99.5016 -94.3594 325.053
-6191 103 99.8457 -94.8864 325.102
-6191 104 100.104 -95.2824 325.139
6192 104 99.3721 -93.9923 325.578
6192 102 99.6997 -94.2666 325.372
-6192 103 100.136 -94.6315 325.098
-6192 104 100.463 -94.9058 324.892
6193 104 99.6781 -94.1942 326.016
6193 102 99.9695 -94.245 325.645
-6193 103 100.357 -94.3125 325.152
-6193 104 100.649 -94.3633 324.781
6194 104 100.139 -94.4428 326.235
6194 102 100.302 -94.2444 325.836
-6194 103 100.52 -93.9804 325.305
-6194 104 100.683 -93.7819 324.906
6195 104 100.686 -94.5914 326.219
6195 102 100.668 -94.2111 325.936
-6195 103 100.643 -93.705 325.559
-6195 104 100.625 -93.3247 325.276
6196 104 101.22 -94.5216 326.05
6196 102 101.029 -94.0932 325.98
-6196 103 100.775 -93.5231 325.886
-6196 104 100.584 -93.0947 325.816
6197 104 101.662 -94.2027 325.861
6197 102 101.35 -93.8823 326.019
-6197 103 100.935 -93.456 326.23
-6197 104 100.623 -93.1357 326.389
6198 104 101.942 -93.6925 325.79
6198 102 101.607 -93.5972 326.112
-6198 103 101.161 -93.4704 326.54
-6198 104 100.826 -93.3751 326.862
6199 104 102.043 -93.1238 325.933
6199 102 101.789 -93.2958 326.294
-6199 103 101.451 -93.5247 326.776
-6199 104 101.197 -93.6968 327.137
6200 104 101.994 -92.6666 326.297
6200 102 101.908 -93.0455 326.569
-6200 103 101.793 -93.5498 326.931
-6200 104 101.706 -93.9287 327.203
6201 104 101.883 -92.4373 326.828
6201 102 102.001 -92.888 326.917
-6201 103 102.158 -93.4877 327.035
-6201 104 102.276 -93.9385 327.124
6202 104 101.838 -92.4797 327.415
6202 102 102.12 -92.841 327.293
-6202 103 102.496 -93.3217 327.131
-6202 104 102.778 -93.683 327.008
6203 104 101.909 -92.7658 327.893
6203 102 102.279 -92.9026 327.628
-6203 103 102.77 -93.0846 327.276
-6203 104 103.139 -93.2214 327.012
6204 104 102.179 -93.145 328.212
6204 102 102.514 -93.0026 327.908
-6204 103 102.96 -92.8132 327.503
-6204 104 103.295 -92.6709 327.198
6205 104 102.63 -93.4527 328.344
6205 102 102.818 -93.0808 328.117
-6205 103 103.068 -92.5859 327.816
-6205 104 103.257 -92.214 327.59
6206 104 103.186 -93.5475 328.361
6206 102 103.158 -93.0797 328.287
-6206 103 103.122 -92.4574 328.187
-6206 104 103.095 -91.9897 328.113
6207 104 103.733 -93.3721 328.364
6207 102 103.489 -92.9763 328.456
-6207 103 103.163 -92.4496 328.579
-6207 104 102.919 -92.0538 328.672
6208 104 104.158 -92.9785 328.499
6208 102 103.761 -92.7962 328.683
-6208 103 103.233 -92.5537 328.929
-6208 104 102.835 -92.3714 329.114
6209 104 104.354 -92.4755 328.79
6209 102 103.932 -92.5771 328.982
-6209 103 103.371 -92.7123 329.237
-6209 104 102.949 -92.8139 329.429
6210 104 104.281 -92.0475 329.212
6210 102 103.985 -92.3976 329.336
-6210 103 103.593 -92.8633 329.501
-6210 104 103.297 -93.2133 329.625
6211 104 104.012 -91.84 329.727
6211 102 103.954 -92.3108 329.733
-6211 103 103.876 -92.9371 329.74
-6211 104 103.817 -93.4079 329.746
6212 104 103.678 -91.9413 330.205
6212 102 103.887 -92.3573 330.116
-6212 103 104.166 -92.9109 329.996
-6212 104 104.375 -93.3269 329.906
6213 104 103.453 -92.3096 330.603
6213 102 103.859 -92.5157 330.47
-6213 103 104.399 -92.7899 330.293
-6213 104 104.805 -92.996 330.16
6214 104 103.457 -92.8195 330.876
6214 102 103.914 -92.7402 330.774
-6214 103 104.521 -92.6348 330.639
-6214 104 104.978 -92.5556 330.537
6215 104 103.734 -93.2835 331.053
6215 102 104.073 -92.9513 331.042
-6215 103 104.523 -92.5093 331.027
-6215 104 104.862 -92.177 331.015
6216 104 104.221 -93.5583 331.249
6216 102 104.309 -93.0968 331.315
-6216 103 104.426 -92.4828 331.404
-6216 104 104.513 -92.0213 331.47
6217 104 104.759 -93.5379 331.473
6217 102 104.565 -93.125 331.603
-6217 103 104.306 -92.5757 331.776
-6217 104 104.112 -92.1628 331.905
6218 104 105.17 -93.2805 331.82
6218 102 104.763 -93.0679 331.937
-6218 103 104.22 -92.785 332.093
-6218 104 103.813 -92.5724 332.21
6219 104 105.322 -92.9064 332.279
6219 102 104.853 -92.9691 332.316
