49.5754  -20.9887  147.894
47.4073  -19.9917  137.977
38.0321  -16.6459  135.752
33.2578  -17.3394  144.738
34.9038  -20.0652  154.429
37.2983  -20.2932  164.341
40.3656  -21.5211  173.991
43.1064  -22.4088  183.776
45.3903  -23.8505  193.612
48.7081  -24.7019  203.219
52.1822  -19.5427  211.304
53.3786  -14.3311  219.99
51.2649  -7.34873  227.118
48.8071  1.18609  232.134
44.9904  7.19022  239.443
40.1372  15.7744  236.836
34.0926  19.1706  229.355
35.859  22.0839  219.74
40.9004  18.9047  211.463
48.049  18.5296  204.197
53.8312  15.418  196.391
56.3074  8.55204  189.266
60.1294  5.11347  180.457
61.9513  1.00224  171.301
59.3891  1.2153  161.431
54.9711  2.70243  152.358
49.7195  5.30923  144.012
48.6683  9.54773  134.794
55.8631  5.03609  129.144
61.1036  2.22012  137.429
57.664  6.03843  146.24
55.0795  10.6357  154.971
51.2987  11.7278  164.381
47.9268  8.93316  173.593
48.3176  4.32098  182.682
49.9612  -0.00878403  191.77
54.709  -2.42089  200.47
57.6104  -5.93758  209.594
60.9659  -3.72472  218.969
63.8206  4.73663  223.898
59.2991  12.85  228.113
59.4712  23.0479  228.001
57.0528  32.4764  231.05
51.3502  39.4844  235.784
46.8614  42.41  244.463
38.8793  42.562  250.811
34.8316  41.3048  260.089
36.1022  38.766  269.886
38.2004  35.3144  279.252
44.2662  32.7728  287.049
51.0865  32.1109  294.604
52.541  33.4416  304.612
45.8273  33.6374  312.288
37.9355  37.5334  307.133
38.3219  39.5567  297.143
38.9117  39.4262  286.961
44.3514  37.5663  278.535
50.3517  33.9594  271.117
53.6631  35.5428  261.6
54.3218  32.1087  252.018
49.2893  30.6197  243.272
40.9919  30.3017  237.348
31.3092  30.1661  234.144
21.4545  30.4912  236.755
12.7225  26.8159  240.535
5.56159  22.4536  246.343
-1.73839  20.6301  253.229
-1.85588  16.3213  262.474
1.21929  14.3363  271.995
7.10653  14.678  280.317
14.5237  14.6901  287.319
19.4584  13.792  296.2
17.2023  16.8882  305.654
7.99629  17.3568  310.021
1.03084  17.7979  302.582
0.881477  17.7402  292.384
6.83323  20.0382  284.425
13.8946  19.5433  277.081
22.2648  17.7564  271.533
29.6982  14.877  265.169
33.7272  13.6723  255.876
29.1038  10.8596  247.23
23.0979  8.23423  239.415
17.9202  7.89397  230.634
10.22  5.86662  224.259
2.73025  1.47644  218.905
-1.3477  -0.405164  209.747
-5.14492  -1.23738  200.316
-8.56988  -1.88615  190.731
-8.86948  -0.0651987  180.699
-7.75802  0.0744576  170.561
-6.37504  1.39639  160.542
0.680906  6.37411  155.112
9.53459  9.91226  158.736
12.3478  11.9514  168.326
8.54015  13.2925  177.694
3.94516  10.8233  186.459
-1.82187  7.21739  194.06
-8.60339  4.03798  200.984
-14.2027  -2.60742  206.325
-14.2711  -9.09725  214.194
-10.6558  -13.946  222.407
-5.84458  -20.2967  228.776
-3.49291  -21.0679  238.671
-0.938177  -20.8065  248.543
1.72526  -18.3739  258.084
2.07663  -14.4387  267.487
2.42515  -10.7625  276.995
-3.17344  -6.01897  284.08
-6.54349  -6.83806  293.672
-4.73809  -10.7956  302.898
0.56575  -14.5521  310.76
2.08245  -12.3123  320.594
-3.83438  -8.98017  328.205
-5.47111  -7.52185  318.244
-0.988124  -8.88617  309.184
2.21561  -11.2139  299.784
1.81337  -14.532  290.147
-1.1439  -15.7879  280.466
-5.43727  -13.6037  271.476
-6.87337  -8.56459  262.724
-5.9781  -3.87884  253.709
-1.60514  -1.7888  244.734
1.84827  -4.87768  235.647
2.82376  -10.0813  226.928
2.3324  -16.714  219.195
-0.022995  -26.5678  218.014
1.99331  -35.3993  222.702
5.33255  -43.6919  227.613
10.733  -46.1202  235.919
17.7733  -44.3094  243.074
24.947  -40.2982  249.114
27.9127  -32.0325  254.303
29.2172  -21.9611  253.352
32.3625  -15.2808  246.315
37.1306  -8.72858  240.121
41.8277  -6.58443  231.324
48.1266  -6.78916  223.304
51.3073  -7.48873  213.638
50.636  -10.087  203.797
51.2291  -13.9157  194.362
51.799  -19.5815  185.899
47.5699  -19.3868  176.619
48.3046  -19.3901  166.446
45.2548  -18.3985  156.763
