30.701 -15.6168 -53.3388 37.1332 171.435 56.8896
55.2759 10.8996 -46.2513 8.13886 39.041 90.7149
57.0185 -1.79015 27.4957 18.777 133.91 29.9256
24.3202 24.2733 -27.0684 130.251 4.82779 136.354
-3.99324 22.7653 -44.3656 74.8371 170.857 172.1
-21.4373 -64.0668 -19.0051 161.525 68.8985 22.0373
-34.4699 -42.3815 -3.93353 111.737 94.2971 108.054
11.2095 13.5648 -17.5424 117.195 134.584 16.3488
3.28546 -41.8021 -0.516743 39.9825 8.47858 107.578
8.68679 19.3158 -64.7816 178.301 39.2569 88.6227
14.2017 -13.542 -50.3533 12.6989 33.9742 135.375
-68.2481 10.6353 25.1401 23.8721 28.8009 51.0679
49.5865 13.1481 55.0212 50.4079 92.9037 25.3457
26.6001 -27.6752 67.5381 73.5345 158.302 149.147
24.1282 5.14668 -47.258 140.045 178.243 94.9547
-16.6 39.7179 32.6751 82.2687 52.904 167.778
2.62007 23.247 -73.9092 123.17 13.0563 166.252
-39.7708 13.7366 -53.1683 142.032 21.8066 77.1254
-30.2907 -9.43856 16.7379 63.4921 119.188 63.2364
13.0979 -42.2015 0.720474 92.0799 65.4972 63.1846
-1.14744 -55.1171 50.5184 143.808 91.3687 45.6519
4.68402 -7.05719 45.8345 2.60694 76.856 54.1697
9.80087 -31.2395 39.4945 70.806 164.198 145.246
11.8135 13.6658 -9.03664 4.52694 160.507 39.9687
-3.85568 -11.7374 51.8258 3.76458 95.3704 163.851
49.781 38.4392 39.3285 6.26534 99.0794 52.8603
-56.5202 -43.7742 5.09447 14.7159 78.207 152.304
-48.6735 36.9471 -14.9316 178.586 41.7193 75.3703
24.4438 -27.2796 60.8176 158.352 82.4817 144.381
-3.33786 26.7118 42.6801 90.3519 75.8521 21.5871
-43.6582 -6.42585 -30.353 8.47314 16.6415 57.5667
-46.2827 44.4815 35.3466 121.422 111.589 89.7051
16.4042 -58.0851 5.90856 101.267 93.5151 52.9646
-32.4457 42.1894 30.4626 95.5381 175.838 90.1433
26.4122 -7.75449 55.4281 159.933 34.826 13.2785
47.3949 -33.68 22.6801 60.3966 107.648 118.54
65.559 -6.02539 -9.41405 107.718 82.6413 19.3924
-31.8001 -47.8844 -40.8037 169.08 74.1701 59.6467
29.6315 -48.196 50.4428 29.5342 142.451 163.28
-60.1388 5.60522 -16.2182 1.01021 25.0549 128.895
-46.4797 -8.74329 -50.7321 121.232 111.336 124.43
-26.0256 34.876 48.7547 88.7507 107.709 118.799
51.4994 -26.2827 22.7578 124.897 15.6881 163.776
-2.31182 -3.62245 25.4021 159.45 3.6694 132.379
-57.5781 -19.9717 -4.39721 56.512 21.0148 82.5743
-3.94455 51.6875 3.97352 29.582 53.8932 79.2745
26.5472 -55.9398 -22.9604 51.6205 177.941 133.087
20.8318 -33.5007 -33.8406 117.228 144.495 79.926
-23.8357 19.2084 26.7073 29.1474 138.724 178.658
-0.0928132 64.5315 -21.0722 153.568 54.2331 34.0797
-13.8449 -44.0366 -12.3581 14.4565 179.193 170.341
43.3946 -38.408 -1.05143 36.2485 26.3071 128.854
8.64294 22.4054 -4.70943 31.9129 127.628 47.1638
-15.0586 37.7925 2.23627 20.1632 155.851 96.3547
36.4296 -42.4188 -13.9015 132.097 122.865 72.799
42.0924 -47.2677 20.6555 149.803 38.951 91.9395
15.7255 5.1356 -37.9837 160.075 7.14076 23.2203
22.4487 -3.80383 2.0763 171.309 29.8649 150.917
-10.5192 -38.0129 41.4026 21.0328 117.042 170.027
-17.7601 43.4215 32.5916 158.287 179.417 64.8135
-43.8076 7.72019 29.0073 127.506 172.277 50.3298
20.8988 68.5887 -0.635751 45.2658 88.5038 69.1158
-1.94139 -26.6368 38.6247 23.9297 3.11382 20.7533
9.27616 -5.95321 70.8869 155.489 39.258 170.032
29.3042 -2.70413 37.0895 94.9428 155.545 154.693
-32.3815 66.9961 -14.7604 140.687 91.7941 119.667
30.4598 -12.8385 37.5948 60.3555 51.6826 85.0937
12.3644 63.7432 34.8446 87.1019 43.9596 124.966
52.3163 -22.8175 -42.5497 114.365 62.3204 42.5946
66.6704 22.9291 -15.7593 129.4 34.0719 139.353
21.7606 51.5578 23.8389 101.055 142.207 15.2066
67.6543 6.36684 -27.4083 113.894 133.325 179.989
27.0144 -62.8955 21.4793 166.509 68.5351 27.206
-46.8123 39.6057 -5.91361 74.1344 120.06 73.839
-53.8241 23.3913 2.54707 173.58 30.3062 100.801
14.2165 -8.08641 -65.437 12.0232 156.193 151.757
-67.6088 0.246892 18.5941 94.5888 43.3296 75.9051
14.0578 49.1966 4.07803 74.4186 74.6423 158.643
51.5411 -29.0937 -3.67039 13.6812 174.754 61.8902
-40.2461 -36.1657 -42.7748 28.1207 149.428 154.94
39.6811 -18.6527 -33.4395 88.7539 154.748 1.52738
14.0531 -26.6534 70.7246 124.065 127.564 132.495
26.5713 -41.972 37.1947 134.545 70.701 54.2768
-28.9586 -28.2097 42.9523 134.863 86.7857 48.1578
28.8456 16.8813 -6.90684 130.659 169.273 125.325
-21.2751 1.60612 -58.625 43.0771 67.6377 110.661
35.723 -54.9959 13.0648 85.2636 30.8414 122.031
-54.0117 -15.8518 2.89919 106.907 156.993 136.301
40.7843 -30.3293 -58.2284 4.78379 29.7986 52.8082
18.0264 11.2487 60.1057 143.735 11.925 173.513
21.5865 -10.9176 63.0214 140.746 26.5807 88.0298
-51.488 24.1109 -12.6037 83.6402 105.762 53.0649
-10.4004 -20.1375 -4.41103 63.0521 48.2312 159.283
-36.5344 -46.6731 -45.8719 166.48 75.6514 129.38
-21.6428 -13.1948 -0.603169 116.765 98.368 168.277
61.3254 -2.65008 -25.711 144.691 122.965 137.041
-1.75979 10.9553 2.39658 119.574 16.4924 147.598
63.2971 22.1778 11.5337 45.3688 6.85433 45.4439
-0.917949 -21.0853 59.7917 56.6428 127.236 40.2022
27.2674 17.6635 -69.5137 43.1265 41.8537 90.3912
69.3382 -27.8966 -18.6778 35.5615 156.13 178.168
46.9396 36.6928 -18.3413 34.4494 147.479 76.9029
48.318 33.8827 -34.8667 87.1315 130.486 158.121
53.8496 9.58487 -48.1506 14.3149 52.3134 149.089
19.6834 -2.62624 66.4269 167.878 105.843 122.36
-25.2604 11.5476 69.3078 175.57 125.815 118.447
-27.0016 24.9744 17.0063 158.48 113.509 101.946
3.63335 57.9128 49.3854 158.895 11.3107 128.552
-44.2689 -47.5184 43.193 86.1465 108.104 104.432
-5.18431 46.5663 -52.4912 63.1446 48.4053 174.184
50.6152 -8.62846 -4.43112 45.9827 70.4562 178.064
33.5564 7.76791 -35.3996 178.613 134.859 14.9412
21.3785 -7.91833 -18.6361 77.2936 34.9754 71.9607
-13.6817 74.1439 2.44576 151.134 70.7566 120.945
53.1061 -8.05451 50.2349 133.816 175.537 45.6066
39.6438 31.5516 29.3099 22.4409 52.3054 89.3468
45.4592 -33.0627 25.6138 39.6134 165.03 19.143
28.4427 -60.0049 -15.3534 117.553 61.3852 0.926055
16.2614 38.9782 -40.3421 75.5888 54.2965 56.027
24.4112 -4.61009 58.2935 41.3294 56.6829 85.4427
59.13 26.5797 13.8563 76.0034 89.2568 24.414
-35.1535 36.1335 -5.28939 73.9639 172.057 138.878
18.9105 -45.9709 5.94092 101.093 16.6541 107.204
-44.9457 13.663 -26.8336 10.6881 29.4286 154.837
-20.7098 -23.0878 18.605 105.768 9.9647 120.958
19.0982 38.9009 5.15105 115.233 170.328 96.671
49.5251 -0.126114 49.0593 79.499 37.9258 56.2076
1.2638 -5.3698 62.5822 127.543 43.7353 74.8681
51.9985 32.2703 -33.4863 98.5358 21.9296 146.217
-69.6487 21.4617 -25.0228 93.8399 60.4177 153.033
1.89675 -26.253 27.3643 127.734 83.3284 120.626
0.999743 -1.33456 -62.1738 16.5806 114.642 1.66829
42.948 23.5047 -30.7745 155.03 138.931 109.713
28.8305 -37.5086 37.9654 118.694 102.454 18.8125
-10.7697 55.4227 -50.6375 140.48 71.2081 83.5989
3.31596 22.7336 12.1592 134.65 84.8034 43.461
44.4314 -25.7942 -10.0055 26.2768 21.5536 133.506
20.3155 -35.7284 32.5237 139.847 8.91091 99.7393
29.7237 13.2213 -7.50559 126.397 57.9022 52.7856
3.91666 64.2533 -3.22586 31.5211 165.881 79.7888
-62.739 -8.99723 -21.3059 44.1818 14.277 111.257
26.5663 32.4446 65.4422 32.4215 122.533 141.986
15.9307 16.2276 13.9638 18.8559 58.2942 95.0554
-34.6984 -68.5155 14.7369 47.9176 80.6016 179.886
-0.582892 2.62378 -72.6813 120.55 87.9975 157.77
26.3799 13.6689 -12.4536 139.905 42.2674 93.6483
-9.25792 -53.0713 17.8962 62.3616 159.818 147.608
73.4346 18.7087 -10.4845 63.1616 145.56 84.7194
-40.5818 -17.8322 -40.7919 140.919 8.70101 63.1024
-3.81724 46.7458 19.0989 173.559 58.9118 89.7737
6.63188 -47.1841 -28.9131 67.794 90.0607 93.1772
0.0513204 67.0182 -38.2225 27.273 33.7414 120.206
-5.66938 -12.5373 -18.5327 73.7696 64.4735 152.717
-11.4812 -18.1757 36.8975 175.115 132.516 56.9522
16.1974 0.850744 60.2619 52.8397 107.802 3.54886
5.0818 34.5101 51.0964 146.77 96.587 134.886
-17.2917 -52.7363 -52.8652 89.5778 41.4117 104.058
-27.3334 -50.9023 12.897 135.969 63.8322 177.634
18.4762 -2.14747 21.6537 158.357 152.06 158.316
-57.3314 -2.99181 42.4996 148.758 130.268 132.325
18.841 -5.58013 -1.88301 151.192 55.895 51.2352
44.2523 -15.8496 -60.2829 134.414 152.149 82.7489
6.8906 19.2552 -55.9021 106.019 176.358 30.6348
29.5328 37.9548 -5.22575 29.0991 80.6607 2.0262
14.1608 -10.4088 -10.6679 90.6492 104.468 116.915
-36.7509 61.1615 4.32398 113.373 90.4002 135.877
-19.9315 -42.5649 -43.8735 157.198 61.5155 18.3974
34.5203 2.48044 61.4242 54.8139 36.7377 157.472
47.1003 -13.2977 -38.1319 151.052 79.6948 157.584
31.2975 -28.0289 58.9352 0.58418 122.448 98.4522
4.42388 -12.1719 20.9939 15.1226 0.415948 30.5928
53.4876 10.6774 5.75829 20.9271 133.723 64.1744
-20.8271 -28.6349 35.677 147.166 17.0103 26.3031
11.2115 17.3821 68.3119 157.782 105.592 37.3386
-36.6335 37.6959 -51.241 75.7399 64.3552 112.268
-52.972 -6.27809 -52.1376 135.648 25.6088 162.174
39.9861 -4.44106 -64.9719 150.588 52.7568 68.4886
55.7042 -17.5391 -24.4492 170.588 45.0956 100.548
9.92467 -22.576 43.0868 120.376 26.6926 53.607
9.48779 -18.7751 -75.0602 148.961 76.3764 123.443
-44.29 -29.0788 -6.26835 83.2702 12.649 2.89292
22.8651 9.88757 -4.89234 130.894 165.517 36.5723
-17.5701 -18.4035 -6.64886 104.577 69.0682 57.4262
-64.3552 7.19296 4.29459 98.3895 120.309 84.8016
-14.3246 -19.5376 -70.1619 83.8584 118.77 122.413
-18.5381 -17.2777 35.062 178.024 100.836 18.9214
45.5323 23.4883 41.8532 41.4632 127.733 161.542
-42.6841 46.7542 -25.7313 143.431 53.4177 46.8359
55.4944 37.7294 18.6828 12.996 48.0543 137.675
50.6011 -0.0804596 17.182 104.614 124.893 83.6514
-42.7599 -15.148 16.8808 128.03 42.5268 123.318
-40.965 -7.72502 12.5017 12.584 153.536 64.4809
40.184 1.71797 -48.8324 161.6 62.4931 97.6144
28.8672 2.58429 -12.3781 161.543 10.7871 113.088
65.5276 -22.2858 10.9213 65.176 30.9143 4.32474
-20.3283 -65.9043 -12.2122 20.0115 131.749 65.7513
-8.90543 -61.0726 23.0401 72.1882 154.612 103.326
41.8417 3.76193 -29.4702 166.496 102.386 93.0387
-42.6928 19.05 7.52695 59.7609 40.1008 93.4465
-53.783 46.2369 22.8057 103.033 177.719 166.627
-21.5254 42.2197 58.816 9.14091 60.9782 83.4794
-45.9582 47.7839 19.7565 35.6317 167.128 45.4159
-11.4137 -42.0545 19.163 66.4381 35.452 13.9533
-54.317 16.7449 -2.99765 140.08 18.1269 22.5428
-54.9097 -25.0061 -26.7841 149.513 115.138 39.6078
25.6512 -32.6357 -14.1402 47.9013 164.554 160.797
7.06851 60.0134 -8.98841 80.7131 23.2573 146.401
25.2448 9.63093 -44.5544 143.014 30.918 47.5363
-0.982108 76.6619 17.5181 2.86392 113.771 12.0795
-54.633 -42.8442 -5.91139 119.392 38.8522 175.917
-7.22852 -28.0848 -66.7028 15.6922 133.356 50.2322
27.4827 24.9528 47.2821 68.3911 45.3194 143.566
30.468 29.1866 48.8376 39.4228 95.8183 1.75361
7.90177 -64.7543 25.6004 19.8056 150.911 1.93774
37.87 33.1101 -12.9238 36.3818 52.1345 45.1163
-22.4566 -34.2721 -22.3244 25.0831 109.24 166.886
54.3985 38.6329 28.09 18.9641 156.692 49.8797
15.9952 -23.6759 20.1747 112.766 22.2959 72.849
-50.6023 -8.8355 -19.2497 119.136 140.894 159.541
20.9774 24.0299 -11.9063 104.944 46.7902 162.103
-31.6266 -12.8643 56.1511 32.4138 26.2019 70.8373
5.71378 -0.660742 68.2647 62.0913 25.6603 74.4547
10.0209 -5.73198 -14.7805 157.618 174.877 25.5904
20.4435 -35.16 -48.889 59.1133 23.7969 179.818
15.5641 -24.7775 13.9574 9.64983 173.115 3.67904
-18.0484 -39.842 -3.49021 179.396 150.933 80.8867
-7.35639 55.3039 49.1948 21.7268 61.4296 134.52
-30.0339 23.8369 16.7834 164.475 178.834 163.808
10.9771 -43.5735 1.66803 132.237 61.4808 17.3756
-28.7443 -4.71546 41.9283 13.4858 144.518 6.55009
-0.933116 -30.0537 -36.039 60.9404 92.0682 19.9258
5.82192 -14.4001 -62.7755 91.7754 116.414 30.3358
-5.07437 16.3818 -39.4373 178.629 178.182 175.343
-10.7366 7.08333 -73.7564 36.9183 67.2171 86.9398
-51.5164 -40.1639 -9.21969 37.7174 94.9489 79.2256
-1.7533 -12.9239 -52.443 70.1061 137 146.167
-3.29861 -12.1754 43.214 52.2491 146.955 127.364
-40.3494 44.1313 40.6008 157.683 155.01 164.833
-9.47856 23.8118 24.2669 29.2559 159.315 94.7959
3.68432 -20.4222 -42.6576 153.603 21.9242 135.345
-18.964 -33.9216 -15.7356 13.9744 90.0882 99.9329
47.1052 36.1278 23.895 138.203 10.9547 57.5491
-10.6489 -4.24244 -77.1295 163.649 119.53 145.174
-12.6991 -10.2421 65.3923 73.1061 165.077 25.1091
29.601 -40.0516 -1.15779 14.8744 105.097 69.8158
-22.088 67.6677 -26.898 132.046 151.341 113.963
2.45685 50.1171 39.2241 151.395 7.16398 133.737
17.5204 -15.0447 15.5993 44.2637 163.556 124.802
16.2559 -41.0538 -42.3369 145.723 150.929 175.752
25.6521 71.7221 -18.2327 42.2077 35.2934 104.908
1.57977 -11.3408 -54.7254 158.758 86.2697 118.573
15.043 33.4294 14.5186 49.7589 166.833 148.56
-23.5977 -28.5778 -59.8935 8.76178 90.4213 10.8566
-12.044 -21.9344 8.74316 113.838 0.426058 89.0842
-20.555 30.2967 60.1392 144.476 42.6178 41.913
-30.0421 -14.2326 29.1374 91.6864 82.7986 32.0553
-74.7178 7.97431 -0.700449 147.069 82.266 167.488
28.072 56.2661 -4.35344 5.81799 102.147 5.81592
3.15147 -20.1112 -61.7252 68.8516 78.332 101.127
-28.7421 -1.77837 16.7828 16.0624 79.8916 134.391
33.5547 1.09435 0.0689115 151.629 34.7825 122.096
-7.69371 -2.52798 -23.8852 21.9576 25.11 7.32755
-34.7946 -8.03419 -46.2836 145.175 126.583 170.481
-28.1266 36.5207 -24.6257 51.078 163.169 168.034
-35.891 -54.685 0.897692 6.3837 102.651 5.49944
-1.33704 -70.5092 33.926 64.8629 47.6784 36.2665
-44.6341 -29.2259 56.0643 137.074 111.563 90.5254
-23.2685 -13.3844 -10.8863 124.894 91.6708 43.0912
22.3375 -36.3538 -45.1126 51.0804 125.298 141.759
-7.2797 -44.4002 53.7769 0.228696 142.224 157.987
7.06278 24.5769 46.8472 106.703 147.292 47.1523
-4.94236 74.8538 10.2381 1.40894 58.9476 102.926
-44.4651 -12.4563 8.76162 52.9994 173.991 62.6116
53.9969 -4.33104 3.2538 17.9724 173.397 73.7332
21.1246 32.8937 -30.2256 69.4995 14.1942 6.69142
-40.3036 -44.2701 -9.23093 6.20272 154.48 13.3909
-20.5525 -22.4795 -19.3191 75.8872 143.472 6.6667
-60.1803 -13.3246 -18.2266 9.785 163.683 136.499
9.94303 3.2038 -50.0596 47.4865 20.8007 102.223
35.1796 -52.4268 -14.3456 18.6511 3.99292 166.105
-42.2379 2.32696 -49.6042 104.906 136.468 93.0686
-39.9248 -30.8644 -30.0383 177.232 43.2445 152.147
-33.8936 -34.4102 -47.273 147.813 151.853 24.2217
3.95751 8.71733 13.5051 139.593 153.438 169.492
26.7433 37.4264 28.8676 159.647 25.3284 74.9056
18.316 12.5133 26.1456 39.0887 82.56 24.6692
-11.7991 33.3971 -51.9004 150.894 80.7748 106.021
17.7974 44.5986 -6.83435 89.5809 126.4 164.064
22.224 28.6032 14.1366 16.2967 13.8202 70.8729
0.354586 35.8872 31.1818 59.8763 111.957 59.5382
-26.6815 50.8578 -21.5994 89.6005 122.937 131.057
43.9521 -13.667 -15.7882 78.1538 107.258 40.6948
-39.137 64.3076 15.7867 75.776 5.79528 140.964
-64.2683 1.75975 -15.018 14.5435 52.1413 123.293
33.0772 34.2015 55.715 179.63 98.3518 178.731
26.3835 17.0456 -9.19607 174.594 40.4259 151.949
-43.4882 3.76075 40.8361 20.8539 2.96298 60.297
-58.5618 33.8774 -17.1023 31.6756 152.977 168.857
53.0329 -15.9592 15.3557 147.304 107.095 163.721
-15.7089 -20.1765 -51.7857 135.767 133.666 75.9352
60.6027 -1.54106 -43.47 59.5914 53.2082 156.278
-9.94673 -10.8318 -16.2502 70.2824 113.301 144.388
-8.41612 -69.0259 4.7134 151.223 45.6417 170.873
49.3214 -6.99744 3.90275 62.0672 145.278 78.884
51.277 -3.21336 45.8003 64.6439 134.305 122.77
-41.9521 -1.97982 -49.8531 89.3257 41.4083 100.852
-50.9999 9.82177 -11.8803 91.8944 96.64 36.2921
40.207 -20.0205 21.3282 136.969 91.4627 117.353
-65.2015 21.9146 23.4824 163.308 143.912 123.534
-20.6409 -23.9183 -9.20254 77.4149 103.327 86.8232
-10.3883 -32.1279 -11.7681 140.389 27.2216 6.86577
55.1056 -26.5236 -8.05052 74.4239 116.561 132.865
-32.3011 -28.9671 -49.1057 62.5114 152.418 22.9577
-41.239 9.81519 59.565 3.78831 90.2978 51.7032
39.5691 -20.9897 57.3497 44.0043 36.4134 8.07146
32.6365 -49.8805 -47.0933 148.803 163.521 105.072
19.3811 56.685 -48.2718 170.063 41.0927 171.162
12.1079 -50.6216 -49.7239 151.551 50.4613 88.1334
13.3527 -21.7217 38.8255 152.578 92.7429 89.6724
-23.8516 -42.1825 47.6225 177.682 133.037 28.0102
-10.7099 57.2019 48.2189 26.39 115.474 19.2468
-34.8978 -45.5042 -34.7988 89.374 143.719 28.144
13.5591 32.7161 -67.0447 64.0821 119.457 127.244
-15.4384 -22.0333 -72.6149 58.1493 134.092 134.216
20.6738 -40.7781 -10.2186 82.1223 97.8571 88.598
45.6024 2.82475 6.2969 50.8269 174.251 133.604
-69.7451 -4.50212 20.1973 115.89 10.7599 93.1733
30.1539 11.9799 -39.947 82.2308 81.0345 93.4544
-4.79344 32.0323 54.0596 104.243 151.789 154.151
6.62977 -21.1299 -57.8053 90.4941 164.7 59.8591
0.740655 73.336 7.08463 179.829 112.045 136.658
-9.04046 25.1958 -0.565747 47.3832 55.9269 172.121
-35.4956 -17.9124 -36.9413 4.53458 57.5389 121.235
29.6862 49.3562 20.5554 34.3664 25.8837 64.052
-21.7224 -24.725 -1.67568 111.621 126.474 75.7869
-18.4295 1.30477 -64.4462 152.088 24.6592 1.69105
58.5686 -14.1659 -47.8145 141.44 96.2277 10.0546
-28.1814 -30.969 -36.1998 117.648 135.676 19.0286
11.6289 17.9001 72.5017 31.2583 147.94 158.684
-39.1613 20.2491 -20.2017 24.9927 7.44302 161.617
12.4296 -15.0106 15.9835 32.1324 57.886 129.379
48.9616 13.6383 31.2215 48.0213 40.027 78.5043
48.623 -24.459 2.38521 102.145 53.9745 151.024
25.154 6.23546 16.3437 16.2904 37.824 157.786
-23.3289 46.8222 -16.6533 52.5045 151.186 106.692
30.0749 14.7563 -63.2624 81.0709 103.851 124.417
38.6036 28.0011 54.5994 174.103 158.229 153.973
7.87258 52.1857 23.6567 100.067 87.8668 125.926
-12.8045 -32.0984 30.0797 126.883 85.0426 2.4185
-21.2102 37.7578 -2.22198 20.1704 53.126 167.827
14.9016 -51.2717 53.5451 120.16 165.24 6.04177
-22.1017 -43.4935 -14.0323 117.053 68.4076 90.8177
22.9322 54.8351 4.39316 160.672 1.52952 169.707
-5.60193 -34.7611 58.6793 10.1153 161.666 172.196
56.1174 -52.4068 7.32206 13.534 0.0236755 147.865
-56.8406 -34.2409 0.217131 34.5135 104.624 137.817
15.6229 -49.6698 -45.8854 159.305 43.8399 44.411
-38.7659 47.5108 -18.5313 112.515 75.7307 117.282
-60.1019 -39.2058 7.77119 15.5585 26.2702 119.981
-40.5525 -63.8491 -18.0816 1.70222 93.4632 157.7
-0.231583 -1.78701 -59.6593 85.1761 88.3594 88.9156
-49.2593 -38.9712 15.7539 3.30009 105.862 156.045
11.4696 34.7164 -22.137 143.968 44.6491 18.4351
22.9754 -27.4101 -43.409 53.821 108.897 129.149
-30.0641 60.3704 39.774 101.438 120.223 129.849
6.0036 -33.6222 31.6618 171.059 128.962 178.278
34.7847 -51.6013 -39.2746 112.928 29.367 166.422
15.6351 43.1021 -47.201 131.231 58.5626 10.419
23.491 -71.482 11.689 117.376 88.2476 123.368
-25.9845 26.1607 33.5448 28.3668 36.9706 3.12344
23.9781 -33.1093 -44.2938 48.0709 99.0852 29.5263
10.6155 11.5724 15.3351 47.1312 46.7572 15.2607
38.3691 17.6414 5.64642 131.54 106.135 107.529
7.00989 -54.2092 37.3729 112.674 82.9946 177.652
-44.9868 -0.770664 -12.1034 157.153 14.6184 150.706
-18.0984 71.0813 -2.68922 1.91408 111.857 16.1537
-32.6843 30.8575 -42.2938 54.6545 51.9025 125.317
14.9239 50.0273 -54.1954 154.641 92.9245 117.777
14.1994 32.6046 44.7009 158.843 145.707 161.526
10.5171 -52.9033 55.4764 96.5108 93.4312 85.4022
-22.8172 62.0758 19.4204 69.9794 49.661 137.576
-43.9764 0.322095 -25.312 29.5351 100.094 74.3568
4.08395 59.501 -9.22279 45.8409 20.5876 1.23558
13.5681 12.9028 -63.6527 70.5864 14.8914 24.7443
-53.0954 -4.91639 35.6379 81.7864 93.9718 64.6398
-22.7642 -29.1574 66.7138 111.508 140.06 56.6925
-23.5585 17.6581 -1.51171 84.1479 5.61055 177.676
18.8548 -48.3362 -21.6255 76.1886 76.108 45.4845
-44.5839 -2.68778 39.807 67.1434 135.023 32.3143
-58.1287 0.89452 43.2285 83.0549 60.9209 135.047
-1.37077 -45.3549 21.9547 110.356 10.6414 8.39314
1.40128 -27.1563 71.3104 22.7705 61.6962 160.999
-40.2617 1.30256 3.71523 174.493 125.739 139.776
-36.7714 -24.7405 49.7084 114.284 171.595 42.4835
-31.4342 -21.0589 -20.6581 141.665 42.1269 92.5466
64.0997 13.7037 -42.3019 110.088 22.0441 61.0361
-66.0846 -3.5121 1.93942 67.0011 107.169 175.485
6.38256 -75.147 13.2937 144.475 21.9848 133.404
55.3206 18.6023 -50.4033 3.48844 74.0582 136.135
51.8283 -35.8855 9.16855 15.1956 172.193 107.256
-50.1872 38.3382 -5.85634 36.8833 161.073 173.91
14.8598 28.9671 -0.855892 109.557 12.6539 99.7417
-60.1296 -6.86095 -21.612 128.265 36.1869 170.632
-36.972 23.4993 -5.03395 117.309 88.4884 93.2244
-12.7701 5.84041 22.0525 154.996 125.093 104.072
-36.4409 -48.4826 40.5945 75.9742 124.016 33.195
-41.6722 36.9951 17.9896 71.5719 114.06 144.025
52.9612 36.6715 0.851395 178.034 167.952 51.6331
43.8007 -54.3535 -16.1004 45.5779 115.395 9.76234
30.5644 5.03797 -43.2286 135.018 145.478 140.28
-36.6874 3.62192 1.03763 49.7222 153.824 53.9889
1.12101 -6.48413 -25.4175 128.884 11.3899 178.116
37.336 49.7798 -40.3227 70.0306 112.662 113.814
-65.7881 6.94509 -31.7959 31.5242 128.6 58.7787
48.3365 30.6738 17.0017 107.096 22.3534 101.432
-66.0402 22.9639 10.2356 112.432 23.6905 56.28
-8.25848 -75.0574 -8.81835 135.449 61.19 117.047
-5.68088 10.9711 -26.5532 117.75 92.3415 171.337
4.89708 4.3121 -73.4022 152.715 169.195 165.014
47.9258 17.327 29.6741 78.4733 166.246 7.70768
-38.7343 12.1657 -5.87734 147.867 99.2136 154.43
48.8433 -49.2251 -35.8643 55.6125 132.994 78.693
-57.9825 -48.2068 -7.95679 132.128 125.688 37.1063
-16.7771 40.5496 6.19553 83.2534 72.9983 107.72
54.7728 35.0161 43.6331 162.149 171.896 8.43688
49.7415 49.0882 -7.12476 129.953 40.2224 102.844
8.11402 -45.6617 59.3003 110.244 89.3984 148.838
-15.6728 16.47 13.4633 10.0555 73.4404 125.123
-0.915075 34.3877 -14.6729 51.9877 50.6313 4.27523
43.1731 -30.1767 44.9893 62.6988 0.23671 85.8701
33.1993 16.3942 -36.262 50.7264 19.7384 123.118
-7.91686 -32.2384 -41.5537 48.3858 127.882 77.2277
-33.6991 -3.92499 -55.3552 57.1409 129.373 130.281
-72.6708 16.277 7.42016 165.334 156.078 154.161
11.4734 60.7118 14.0678 121.987 13.1811 20.6453
-17.1904 2.24851 -39.3561 3.23098 130.293 148.317
4.29527 28.5856 39.0902 49.0054 150.364 145.799
4.13625 -2.85317 -44.554 129.93 165.316 26.5025
59.9711 7.53587 -24.6164 74.7525 176.972 121.714
1.56732 -4.36543 -12.2637 98.7063 53.0746 145.225
25.651 15.8988 48.302 99.5997 125.464 156.238
43.0064 18.5909 54.3023 174.72 62.8682 12.1242
25.1762 36.5814 -14.9096 14.0347 78.8486 48.2488
1.35177 -62.0906 -39.4207 74.9203 102.303 111.316
-20.0078 -38.209 35.7455 24.96 100.92 57.1822
-2.44838 30.4356 -59.5667 72.6696 96.7979 44.1841
41.866 -62.0393 -22.0926 179.282 84.558 94.4841
-3.37388 -50.7439 -55.8433 39.8363 168.099 42.2857
27.1818 -19.4191 -5.32281 66.9592 19.9232 53.3208
-69.9282 13.8222 -0.479299 172.654 31.5583 169.745
-22.3512 24.4938 -36.5207 89.1417 83.7605 149.344
-8.30505 -5.83497 35.7627 146.041 18.5494 117.625
-50.056 53.6723 -23.5465 147.385 6.18338 100.273
-16.2771 -45.6069 33.4657 134.765 110.846 157.803
-40.4389 33.3808 8.96207 34.1494 36.7004 157.422
9.39263 -37.3467 45.7735 117.96 134.819 12.3036
55.3018 1.12421 11.6678 20.6199 130.428 58.7528
12.1994 68.4284 9.68074 87.8287 163.114 148.313
29.6354 22.1737 0.783268 123.618 19.1745 107.507
-60.949 4.37943 -1.32217 124.927 105.5 179.04
38.8385 -35.9782 37.2656 99.4212 123.122 133.973
33.1146 0.57528 -18.0817 22.5891 112.857 119.346
39.7619 -61.5854 -15.6332 40.8845 173.807 57.4986
-5.54584 -73.1567 -16.3715 81.2305 54.3468 174.204
24.3561 61.0944 28.2215 156.294 81.1834 31.7909
-50.83 31.6954 -24.14 171.61 27.7196 114.495
16.3977 -42.7175 25.0731 118.144 165.349 173.787
8.18815 9.31695 -52.4288 172.738 152.871 124.882
-46.932 -19.1687 -33.4918 25.446 59.3859 71.1372
-40.7698 -31.7094 -21.233 118.441 58.8887 58.1808
-25.2781 -18.6474 -60.1454 131.325 64.0401 122.808
-58.3027 -35.4162 -23.2841 18.8005 12.1751 171.675
2.25071 21.4353 69.71 151.723 16.7122 119.925
-24.6685 42.5321 -27.2279 156.808 113.395 146.759
-51.3233 -14.1752 12.8158 63.5066 161.78 153.263
42.0685 30.6044 48.8634 89.6335 88.2399 140.858
35.141 18.4742 -13.2207 1.87579 15.899 88.7352
45.1379 -13.245 43.4367 98.9782 86.2396 68.511
50.8448 -5.7619 -56.2412 110.017 111.752 0.468551
20.609 -35.2779 -30.4302 6.90617 103.365 56.3675
-20.4882 40.1689 -43.7249 106.333 106.958 47.3103
-61.608 -15.1227 14.5099 108.504 58.1961 113.825
18.4053 -5.05259 -73.6533 3.71975 5.98827 169.774
-55.4286 7.79255 -7.34042 18.5153 39.5667 174.357
-5.61661 2.06202 -55.1614 26.769 39.8987 32.0126
-60.9668 -29.0786 -4.40848 161.598 57.6232 8.71927
-59.3571 16.7223 -38.7353 112.351 53.3003 43.7927
7.68441 13.7195 55.2649 135.263 44.3399 31.5754
42.2172 -32.0822 -26.1882 177.011 8.79254 37.3867
-40.8972 -44.3137 7.69828 10.9371 1.10331 24.4132
31.0228 -36.827 -42.8213 106.459 45.6725 125.131
-8.09541 -26.7651 8.08199 44.5573 77.6947 38.0678
18.9648 -53.8154 4.21708 26.7978 108.794 134.715
38.3717 51.2736 43.2927 30.0449 159.034 135.023
74.0083 -1.2317 -23.5017 71.0906 103.419 104.455
-18.6557 45.6587 13.605 72.378 167.453 157.529
-18.6499 45.2136 -49.1888 55.6837 77.5654 61.9901
5.99372 3.2194 34.9971 126.564 60.0128 168.787
-34.9765 15.7507 20.0237 96.2951 70.0332 158.752
-38.858 35.2726 26.0687 142.111 112.888 103.044
20.5505 13.8571 62.9203 118.342 136.827 52.2772
7.74212 52.7195 38.0567 85.0556 93.7711 69.9827
-18.0402 -19.8537 69.2608 134.739 175.596 129.821
-29.0842 26.1348 -66.105 126.1 11.4287 21.4649
12.3148 -38.3116 -65.6969 83.6757 33.6969 107.494
27.8619 -1.23523 -8.12028 126.974 73.6421 46.9628
-17.1324 -61.8506 -16.0884 19.2483 17.2241 151.369
-30.7623 21.3856 57.6167 18.6435 58.2615 9.88897
-28.8135 -8.71075 39.8897 86.0118 121.078 10.9028
-9.67028 68.7304 0.480814 123.899 32.3995 55.4916
-17.5808 -5.5925 51.4136 18.0025 55.068 43.749
-2.10205 -0.669207 -4.4967 142.766 130.52 33.2454
-26.731 45.9286 -52.1749 114.271 103.899 47.3912
-0.445628 36.9907 13.8443 145.28 175.514 34.7453
43.1924 -44.7959 41.0863 165.498 12.0131 42.8657
-32.4244 7.95854 -57.8328 127.664 7.85426 113.387
-3.08286 -22.9877 13.767 128.985 52.0722 0.964332
-29.5221 9.98953 -57.4763 124.37 95.7708 29.8734
37.6999 12.3327 -58.8768 107.746 99.3064 154.905
-14.2936 -32.3692 -54.8317 13.2352 77.748 18.2035
54.8103 18.6677 22.6313 143.392 18.1296 60.9094
33.103 35.5464 28.4882 98.9122 120.789 66.5185
24.0685 -62.8589 32.5831 133.97 22.9746 99.8964
-8.40765 8.62222 -71.0569 6.12995 34.7082 117.727
-3.77078 10.0724 35.7557 96.3144 59.7131 135.483
-36.2181 -41.8424 21.8725 99.2435 141.744 47.9511
27.6468 -60.7273 -5.22838 41.9058 160.643 56.4708
-70.245 5.83034 -32.2278 26.8208 107.739 34.9272
-22.5311 20.6458 66.103 68.6428 14.2203 111.613
55.5579 -20.9059 -22.2345 164.108 71.0534 95.3966
-63.875 28.4726 -2.69967 20.9341 153.197 2.98018
-4.61565 2.44409 -34.5343 58.3798 8.31399 177.509
7.69602 -31.8365 52.4319 2.97773 85.8661 129.749
49.8924 12.6952 40.2656 150.95 99.6735 125.275
63.1537 -27.8521 16.3892 30.5387 171.319 21.6985
29.8257 -23.4394 11.3902 158.993 154.383 121.75
-34.3713 -21.9987 9.15925 38.3746 80.6028 127.194
-7.25011 21.8165 -47.5352 115.113 93.1539 112.305
-22.8964 -38.9937 -62.365 36.4905 26.6156 61.6264
-26.1465 15.0945 44.6002 39.5762 134.592 41.5041
-6.1303 45.6006 -33.0186 103.268 31.8451 40.2602
-62.5844 -2.58282 -30.4802 118.067 158.876 147.349
19.3345 -72.7772 21.7302 163.669 140.286 130.769
-18.3698 -26.897 44.2152 145.051 118.602 78.048
-42.5807 -35.5031 -6.83635 152.579 129.45 159.254
-54.3769 14.1277 10.8336 13.6619 0.309801 18.7799
36.7212 -51.233 44.3418 120.754 175.584 141.489
-62.0291 -14.3964 37.8108 104.063 76.9898 47.0435
22.2107 61.5326 -29.5148 170.125 2.66153 14.8915
-21.3597 -26.549 69.0811 123.613 45.1253 131.792
28.4873 -37.7278 -11.0903 5.85119 133.821 127.449
-4.22047 47.497 -6.95464 6.3405 156.442 172.855
-15.2926 -40.9381 -9.07904 116.897 56.876 10.0099
60.6326 3.70215 -40.8182 42.2428 89.6235 87.2335
-34.6851 -9.93226 53.5401 102.796 29.3706 21.9443
41.0515 -26.2267 -37.9933 136.169 40.3709 18.5984
-6.04474 20.7507 49.4106 78.6506 67.1045 161.064
12.0937 -26.8066 -6.99103 55.9774 127.586 141.585
-42.1709 20.7726 -60.7682 119.468 37.2404 95.5839
-16.5761 -12.5663 -56.4098 130.071 140.187 70.2571
-18.9505 24.0412 -52.1121 125.435 149.381 117.53
-17.7234 10.9223 -28.9275 0.246813 63.4533 59.003
32.3921 -20.0533 63.7672 163.734 50.9517 44.5114
-32.1919 4.88352 -52.6346 165.738 96.369 155.916
11.0829 2.61103 11.8443 138.798 152.726 159.845
5.31685 9.79865 -62.097 140.608 30.8047 174.875
17.1459 43.4111 2.39875 17.854 59.6862 103.135
-40.8553 35.2106 -3.18025 106.369 153.768 90.1872
-58.2158 4.24669 -33.7618 128.598 113.211 120.908
-32.3391 -51.7336 38.6492 51.5637 28.2588 63.9445
45.6664 -5.9459 -38.0276 20.7871 2.99951 145.263
9.79173 -63.7058 -27.9159 112.585 9.56028 31.6716
-41.5921 -14.6599 -32.8596 55.9 37.5951 168.02
37.9217 8.58781 14.326 79.0421 152.461 60.6487
-27.0554 -26.0502 -23.0565 131.766 18.1358 160.196
-24.5446 5.6539 17.3305 103.377 73.6803 173.188
2.3636 -36.0891 30.9274 159.026 144.032 114.596
66.5884 -4.19922 6.46474 26.8315 92.9408 137.427
-20.6232 -0.518819 13.8042 133.577 7.42734 139.642
44.0937 -22.9324 -40.5419 92.108 78.5916 88.3528
-20.0616 -48.8099 24.3146 54.9927 38.5342 162.239
41.9205 24.4911 -41.0632 0.831065 134.135 149.184
-40.7011 26.843 42.8102 21.0874 166.214 107.249
15.8855 5.94543 -27.445 90.2815 130.603 66.0756
24.5139 -35.5274 -23.2142 37.0597 134.364 178.584
8.81428 -19.3259 36.4449 21.842 152.58 151.774
-19.7955 -43.6185 14.2864 86.8838 106.76 127.874
-32.4394 20.424 -0.532409 22.0378 156.128 32.9087
-34.6387 -14.1763 -36.149 144.253 31.6246 98.3026
-53.2066 19.6703 -42.0971 95.8221 175.616 36.7779
-11.8457 -21.7472 39.3547 110.725 88.5559 16.734
-29.5558 -66.2306 3.23215 44.6182 5.77797 44.2299
54.3295 10.8601 -54.6096 158.499 168.178 28.3952
-13.5332 -60.7596 -10.7525 137.606 175.99 86.3717
-15.8362 -75.7426 -10.7319 179.174 110.529 31.5356
61.7611 10.7486 -6.36439 119.93 162.678 124.547
35.3276 -22.3257 -45.2938 156.948 90.6356 11.0687
36.4547 43.7858 0.756736 50.7006 135.244 116.45
-56.5017 19.0702 2.19696 173.974 174.417 46.4286
64.0242 31.8146 -2.1016 81.1937 86.1568 34.6332
-1.37417 -0.513589 56.4896 89.2086 123.571 132.933
32.2614 10.5403 9.81421 133.707 92.2335 105.062
-24.405 43.3654 -57.7289 47.1242 101.044 179.155
-54.7868 -15.2985 -36.5825 138.842 34.1638 154.871
-0.452789 44.31 -9.32493 51.2272 61.5541 88.2255
-44.2433 -38.7435 -12.9839 24.0458 66.1599 2.14786
39.6098 -45.7588 50.3503 148.162 117.8 12.4178
11.6351 -54.0728 -2.84099 1.03729 45.551 105.055
2.09645 -45.2773 -0.52253 162.163 151.667 33.0534
8.36419 22.9736 -34.3425 153.459 98.6276 135.889
-26.062 -18.0502 -9.54886 36.3636 29.6061 79.6601
10.7625 -56.8549 5.95534 28.4158 141.397 97.5934
14.5752 35.5789 -12.2847 81.0412 38.6794 150.073
-33.3843 -9.89256 20.01 63.6841 147.775 153.138
21.9405 -41.4343 -16.2451 137.224 178.275 34.9804
-32.765 -0.722693 31.8901 82.2448 105.487 91.3645
-52.0136 15.0288 -51.6088 17.852 170.893 24.6017
31.5426 -26.1689 27.0519 49.331 132.673 166.928
33.3894 -43.3983 -25.0546 168.144 97.8386 144.518
-43.7757 -55.9187 1.73781 148.755 125.645 59.7019
-44.1776 54.4571 32.3989 22.9887 163.065 1.79143
-1.5526 29.5061 57.8289 105.988 28.5443 150.886
-30.9984 -40.3672 44.6015 118.36 108.073 102.214
47.1791 -25.5724 19.4562 90.9035 131.023 27.8981
-8.97683 67.7822 26.4905 162.546 128.895 27.4354
-61.1006 -38.5242 -20.4826 131.666 127.389 5.86227
14.2277 -73.9813 -16.2969 35.9443 85.5058 119.809
-42.0903 30.566 -29.7017 62.1695 145.816 162.176
-4.5555 22.0087 -55.243 77.4639 123.347 2.77907
2.9191 -19.6729 13.6442 100.438 178.386 58.4782
-10.6997 -34.3449 -17.1746 72.4281 157.419 66.13
4.07106 -9.5279 61.5833 128.717 113.421 119.416
-8.32087 -19.4686 -64.4627 51.6851 56.1689 23.9902
14.2931 59.2256 -17.019 76.2198 37.9731 167.144
-26.1919 -52.7208 -9.76752 113.142 76.4114 27.3223
1.4513 -52.379 -7.72325 129.46 48.7652 46.608
-38.7839 -35.0221 -25.1692 155.252 72.7705 52.6137
-14.0118 40.895 55.1582 52.829 105.741 93.8385
26.5908 44.8291 -54.173 97.5862 129.522 43.0599
46.4736 19.3485 10.7904 162.038 20.9263 113.872
-8.5086 70.8125 -22.0666 2.2378 78.8956 103.214
46.4641 -44.9059 31.6037 148.48 101.345 152.39
-18.5842 -49.8809 -12.0394 172.685 124.152 5.10086
-33.5202 9.73948 -17.7521 111.617 42.3127 101.022
-2.39783 40.3032 48.4428 133.742 123.259 46.1872
25.0862 -39.9911 55.0623 157.711 131.056 35.9894
-15.2156 -24.2482 22.9976 44.8126 38.4304 145.944
-55.3573 -51.9492 10.1175 102.052 2.76277 106.212
49.0281 55.5752 -0.541397 74.6495 167.169 38.4855
17.7858 -22.1285 66.4997 39.6092 72.9552 159.188
10.7438 12.276 -58.6147 98.0757 127.912 179.22
-21.0065 12.4748 62.2884 53.9035 155.219 118.118
11.8371 -11.5363 -37.6825 164.244 160.99 164.672
-5.51243 -14.2333 -11.8866 24.3882 72.7141 113.29
-20.8304 -43.7955 -28.1931 26.6463 23.3036 11.2369
8.9835 31.3434 -12.8338 26.851 120.353 40.9319
-15.1722 -60.1174 32.9848 148.556 173.14 153.65
32.1661 -9.92439 -66.6423 47.7423 84.5248 29.8192
3.19844 15.2481 -56.7276 136.526 98.2245 63.6165
-16.5393 69.3271 -10.1095 168.088 161.917 72.6569
-66.4019 -6.98877 -1.28926 103.653 177.138 135.549
1.0496 31.8235 41.2113 170.332 63.8505 144.324
-39.9907 2.63385 48.3991 70.3675 2.09966 14.7289
-41.6851 61.3125 -4.10059 124.707 101.078 137.935
53.6936 -11.4819 -3.25245 47.9879 127.899 1.33256
34.6642 -16.7632 52.7831 29.494 130.851 13.0438
49.8265 14.6891 -12.6865 104.496 124.686 130.315
-41.5378 10.4715 19.9586 22.2519 68.0024 8.78012
30.2151 -46.6211 -27.046 156.469 105.912 161.97
-0.452741 28.8077 34.6804 50.3789 118.724 170.726
4.20664 -4.58247 34.7124 178.11 29.2453 3.96404
-39.4294 -37.2645 19.7558 158.556 130.666 100.215
-65.9748 34.5546 -19.7229 176.067 87.141 172.043
-30.4939 24.3703 29.119 152.461 91.1044 51.2698
-44.3754 48.2036 -33.7252 140.325 16.492 135.427
-27.5395 -45.7708 -6.48534 38.0908 50.2547 104.703
-16.3845 58.6914 21.6157 20.0903 36.6603 59.4419
-48.109 -31.8615 2.77613 3.74562 130.976 104.235
56.3996 -30.9069 9.94925 42.0584 104.492 82.2962
47.0391 28.024 -24.6435 55.8215 57.7335 143.213
6.24065 23.6228 1.95772 6.80925 173.521 31.4691
43.3043 39.6335 30.1676 42.9005 126.435 29.5972
-30.8095 -53.4211 -20.4901 84.4513 25.8073 2.52507
78.2717 -1.42984 0.30827 126.685 164.963 165.759
32.4875 -15.031 8.98158 147.095 31.9112 85.0365
-9.57924 -22.7669 44.493 76.8253 80.7266 19.3654
42.3595 17.041 34.422 16.7574 67.6208 13.5509
-15.527 -32.7921 12.9597 88.3118 67.3438 61.9777
-17.2685 64.3721 38.5332 110.552 137.248 166.685
-63.6277 21.0143 -14.0775 104.274 4.19377 8.092
35.8438 1.97599 -54.94 101.658 90.4194 9.66583
34.643 -49.0855 -49.7518 140.089 43.4478 134.77
-17.0783 31.4931 -24.0526 99.0367 50.0367 176.786
48.9233 -2.18042 -55.9653 130.255 44.4281 12.4355
52.5674 30.423 -8.63769 126.627 104.851 151.97
24.1983 -51.6649 0.142798 96.4476 88.3506 171.951
-11.585 63.2355 -31.841 52.8204 130.964 78.4878
-7.2986 -25.455 -50.1308 177.758 90.5545 29.5661
-14.047 48.4676 13.4154 17.5441 172.457 143.73
-48.5059 -4.46565 8.37549 102.771 156.924 80.5763
17.9725 -37.4507 6.93579 93.5384 170.037 63.9812
-38.0278 25.0516 4.14989 166.816 174.764 132.696
-20.1025 -54.4697 43.1403 95.6979 80.9721 117.548
15.0371 17.8598 44.2838 128.558 107.472 116.593
1.74394 -1.0858 12.8955 44.2109 72.8924 38.8642
20.0608 34.3562 26.7871 27.9093 17.7272 26.2125
-18.5911 -16.5786 70.4937 30.3276 156.578 0.583588
-17.9412 -45.431 -12.1863 104.308 45.6039 120.991
30.1115 -18.027 52.2515 143.272 102.006 126.163
-41.8032 57.0454 28.1576 35.0026 139.321 130.352
-9.02498 -8.73141 14.3179 11.0679 13.0572 12.2085
-10.0695 10.9109 -26.5906 104.212 4.44471 59.2004
23.77 -4.09793 30.5368 35.4323 66.2979 47.8131
32.0062 32.1736 51.0397 157.689 91.9951 113.508
-29.3569 -70.0913 0.817383 99.1673 171.4 167.64
5.26551 2.54672 42.4075 153.422 155.112 46.7303
63.8688 4.87852 -42.6373 29.9536 22.6194 89.4444
54.1977 21.4088 8.26177 30.6442 103.068 134.677
-48.1917 35.9033 -41.8045 176.346 98.7899 118.187
-12.6314 10.8342 -15.612 143.48 81.2891 5.87262
-9.6938 64.0902 -11.2579 9.52044 94.5709 149.805
10.9317 17.7957 9.64497 104.923 81.984 29.0076
6.97102 -0.738597 -24.9823 129.482 118.026 6.1587
-4.91518 -33.45 -39.3935 65.1254 112.382 98.2315
-26.2121 39.54 -25.35 160.728 177.864 119.322
-8.40482 -28.691 -2.43272 19.3145 122.157 11.8327
-53.1184 31.4937 3.13712 70.2937 175.234 64.8583
48.2233 20.6337 26.8974 165.129 10.9368 130.13
16.6309 29.2633 42.7511 46.3649 168.159 108.023
16.4119 30.4807 -9.18178 164.793 89.9303 56.8213
-37.9875 -40.4817 -20.4305 123.617 95.4097 22.7019
-12.1544 -64.399 -4.64627 19.4199 66.1227 70.3473
19.301 -38.8392 -7.81944 110.458 1.34672 93.9845
55.5048 -21.7812 19.0621 143.004 46.9722 73.017
-0.785523 15.7119 -56.0658 172.116 5.06206 168.684
-47.5794 31.2029 -32.1447 176.809 168.637 177.046
49.1124 -26.8592 13.4761 31.7586 35.3245 125.319
-21.4114 58.3782 -42.2387 147.719 155.336 158.025
-14.3147 63.9691 3.21523 15.7618 68.001 10.8474
65.1504 -32.2483 6.82974 28.8023 117.119 34.8653
39.4351 -58.2313 -17.1516 83.4578 118.016 117.527
-4.4651 48.1762 2.36194 173.798 153.123 178.822
28.8733 33.7962 42.5581 97.5996 120.951 89.0379
10.1451 34.1467 66.0715 92.1883 4.56409 34.9197
0.759641 38.6181 -46.471 2.27857 136.41 129.686
27.0027 3.98706 69.7347 37.8655 66.1228 148.559
-26.4555 7.17181 -16.8901 126.675 108.516 155.804
-41.6162 -9.44779 -32.7745 17.4803 29.7312 82.6172
-42.824 -35.6917 38.6615 95.7527 15.701 113.229
-29.9318 -41.0748 -47.314 36.9579 51.7949 42.7549
-24.83 -62.8446 -23.7624 94.6143 3.97397 73.977
-23.7714 20.6901 60.9608 176.014 142.833 152.74
-16.6056 36.7204 42.4788 127.586 94.7549 92.2075
-15.6682 -72.4182 -7.31147 54.8156 163.196 78.1949
1.29237 -13.7503 -59.7715 134.493 120.276 48.7926
-25.3093 40.2648 8.07602 13.2118 147.454 61.1754
43.0234 -51.3122 20.3826 179.619 126.539 48.0346
-1.54285 -33.1124 -55.6392 74.9131 179.318 147.032
29.4389 -21.3531 45.6418 89.4151 61.8653 120.832
1.52211 20.2777 -6.71576 2.47905 62.2012 105.237
-36.3428 -57.4333 -2.6164 22.7704 137.436 37.6782
46.6134 53.1099 -16.8339 23.5228 51.378 159.275
-10.631 -22.1459 -46.5104 175.88 5.35518 34.627
44.1178 -29.0718 18.3504 79.7292 7.53445 44.0085
-22.4604 56.764 14.0322 113.169 44.2431 124.324
-9.30532 25.3283 -63.9774 165.256 12.2908 5.76591
13.3294 11.2915 11.4801 116.009 44.1391 42.0385
-54.0567 10.3464 -3.15732 116.804 132.645 147.615
12.9348 -62.2211 4.40777 135.731 62.7746 110.41
-32.642 -25.876 -43.2623 7.06023 171.646 10.6287
-5.65739 10.3156 -3.15007 6.7676 54.6321 124.347
-8.5924 10.3123 61.4847 179.65 118.077 81.9071
6.08298 20.2385 -29.5015 138.107 136.901 21.5105
-48.1202 -49.6469 9.81258 88.3686 119.707 125.855
-0.217983 -22.3497 -1.48956 39.5381 133.184 124.977
-5.64677 62.9891 11.1638 10.5007 27.7571 137.492
21.7663 -0.709968 -54.2727 134.102 116.447 58.2381
60.387 -9.4229 -45.9377 151.933 109.227 167.597
72.4104 14.8792 -2.92915 169.119 29.9777 28.9852
60.6499 1.39353 -36.5561 12.1963 141.367 86.5494
7.15583 -65.295 8.52793 85.488 16.1265 69.6323
-39.4184 -31.3384 -39.614 175.698 118.058 142.057
19.2165 44.8874 -23.7432 33.1693 115.446 23.4738
24.4693 -54.4128 -20.1502 137.095 82.8992 122.711
-72.0034 -6.21374 25.5987 2.07354 18.469 1.10529
-45.6257 -11.3546 56.2771 100.045 150.226 20.1175
6.58163 38.9398 9.38244 37.1553 130.794 71.3943
35.6998 -44.7777 -9.8369 106.569 11.4884 111.311
17.4787 3.42368 40.3836 97.3097 85.1165 124.175
-29.5247 -18.9542 -27.1451 66.5383 46.1264 113.052
-42.5494 1.21727 30.4752 111.558 164.949 4.40786
-73.2071 -7.7769 12.6782 149.491 136.929 154.218
-4.93768 -29.864 19.3331 57.4616 101.868 113.819
8.71641 -73.9053 -14.3786 58.2693 167.528 164.976
0.192312 3.5052 -6.87117 71.323 72.4137 55.4192
-34.2064 -7.31801 -69.3205 53.6789 89.4448 76.512
22.5016 73.5715 11.1271 46.4536 81.7587 61.7073
21.3429 49.5366 47.5682 89.6211 179.621 175.524
-35.3425 -52.5604 -40.6838 171.276 113.656 86.9182
-19.6962 52.1531 -54.4374 79.8865 172.821 55.2157
6.56671 5.46408 77.58 70.4275 170.915 38.6593
12.1947 31.6276 6.74344 161.466 167.197 5.91338
15.2543 -4.80483 44.8169 172.679 22.2102 7.92525
11.5996 -36.3023 19.0709 131.261 142.255 43.0018
-29.5995 -54.166 18.5119 76.5932 8.71314 122.805
27.8485 49.9572 -51.8218 34.8134 100.873 133.08
13.5733 25.7666 -28.477 145.195 28.7482 90.3807
20.7101 -63.5421 -36.6298 168.477 85.8696 166.978
-15.2959 23.6587 -55.1909 148.894 92.4274 24.5911
48.088 31.2896 46.2595 148.932 152.417 85.9773
-44.4444 14.5657 -54.5486 116.739 159.933 29.5642
-20.7629 4.34107 -21.8855 11.4532 18.6708 51.2142
47.5787 -15.8039 -4.91898 99.5494 33.8838 47.594
-58.3763 -45.6275 -24.3625 49.0859 120.669 113.447
-1.92896 -58.956 45.7692 145.648 56.0523 178.53
0.0330551 -61.2689 -47.3904 10.2646 165.97 77.3198
-3.74724 4.5664 61.9911 29.5157 28.1076 161.866
11.418 5.61197 -19.9746 140.408 165.305 50.2908
-22.0266 -15.0762 -16.9264 116.196 61.7931 137.687
-0.714926 28.9171 -70.2389 79.948 144.649 158.634
13.8619 -38.8245 15.1738 9.05347 135.586 39.9632
3.93266 -5.7042 25.3705 149.85 24.1648 57.3316
-63.5405 -22.8566 -2.71479 57.8108 62.636 25.4245
2.8562 -36.0514 -49.0532 122.591 44.0316 51.1376
-25.0248 6.90399 70.2953 11.1147 53.615 17.5045
16.5943 -12.0983 10.468 36.6073 52.8919 173.308
22.1254 34.1713 52.7669 167.7 99.9769 108.409
-17.307 31.6636 65.2441 96.4464 50.3849 142.966
0.124357 -24.5037 42.8905 173.282 146.846 40.4383
-1.44247 35.9557 61.74 97.941 130.078 112.932
30.8699 23.8667 -28.6889 39.4709 28.046 99.225
-26.1645 -31.9655 -6.25623 53.9601 65.215 28.0399
-65.514 -2.05161 -42.7035 144.095 150.08 59.4461
32.6977 -10.5174 -38.9919 144.964 94.9939 100.624
-66.8963 -7.30854 -34.4064 157.722 1.22332 170.731
28.5331 1.89698 45.4079 156.865 161.305 106.214
-38.1141 -17.4469 34.662 60.8359 170.533 11.833
30.0287 -30.7517 60.1928 103.43 16.3799 121.549
-33.5505 37.1342 -15.6017 116.026 28.3627 79.2482
-14.1492 -49.0296 -3.44636 145.474 94.2918 76.763
30.5746 12.2896 41.1345 173.399 42.4474 39.126
76.3472 9.15088 10.3378 38.7185 159.766 63.8734
-24.9509 -10.7063 -32.8843 130.241 10.6643 66.3579
-54.2891 -39.2966 -0.905505 7.41087 98.8354 91.8472
3.97486 57.1751 52.7387 90.3183 121.232 54.4741
18.2914 -25.9538 2.33757 130.559 144.472 179.464
12.6201 16.6958 -72.2377 73.8963 4.14018 43.48
5.08302 -22.4119 -26.8172 33.3668 117.388 138.435
-30.3964 20.7001 42.2597 147.212 2.74285 62.2499
-17.8453 -6.14635 -46.4347 166.802 121.868 32.8291
-22.4103 2.31446 19.3201 26.4034 95.7048 15.1001
-31.7068 51.2075 -35.5762 47.2835 157.236 73.0787
-69.087 -13.2839 25.0495 73.7667 151.735 176.306
21.3837 30.8164 8.17575 126.407 126.116 68.8125
-33.8104 -19.6951 -41.8402 19.7411 87.3933 95.9877
7.54444 -35.2122 66.9538 145.961 126.189 46.6727
9.72765 44.2278 62.6281 9.17356 65.6407 31.7486
1.47476 -64.1102 -21.9212 97.4695 170.217 70.4722
54.9061 -2.73459 -11.0416 68.507 55.0071 136.065
-13.3786 -75.7627 12.5676 24.389 152.173 69.1748
47.1884 24.6846 22.281 163.459 85.0736 1.5105
-58.9409 3.45189 3.38069 6.16669 8.57932 87.9648
-10.7759 46.469 9.66638 139.934 77.3133 10.7731
-19.3044 20.6772 51.096 68.4218 63.6004 139.799
-20.5149 7.15648 29.5864 38.2091 116.832 99.002
26.9961 -49.066 6.47863 143.423 136.713 13.0145
18.9824 -9.27106 -4.90562 102.035 9.17429 108.647
-58.4281 -14.3574 -28.0425 93.4239 87.0698 117.716
-12.9833 -1.49972 75.9608 179.69 51.2741 56.2874
-52.404 -12.7836 31.5331 171.349 60.9957 57.8404
40.9599 42.3362 -26.3071 158.33 3.72505 37.2054
47.7325 29.6266 -9.93448 21.4921 124.653 120.745
24.9334 -1.24213 -64.1336 140.134 176.996 31.2577
-40.3325 13.0707 -24.0385 145.288 22.9215 10.5679
1.56291 -49.0176 53.8736 6.82571 19.048 38.3306
40.785 -59.6184 3.89863 75.8419 36.717 98.5239
-43.4626 -57.5797 24.1455 47.1985 179.15 88.0199
37.0601 13.5619 24.2279 73.2998 177.325 5.38656
10.3274 -37.4295 -33.5545 160.311 130.349 25.6114
2.36369 -28.3815 8.59726 86.345 59.3161 25.703
-37.009 65.7224 -8.49464 170.706 27.6739 28.9231
11.1781 -51.1223 7.38129 20.1607 60.8974 32.7701
-17.5945 17.8378 56.7523 178.584 77.1496 126.309
15.2346 -3.29091 -55.8008 90.8929 17.3078 144.933
6.22253 45.4113 -34.4664 115.843 32.3674 144.095
-14.5959 40.5497 47.4549 167.428 42.6678 147.785
-42.0537 -35.0588 -54.4968 90.3116 0.220316 16.3546
7.82428 -56.4063 23.1435 108.041 30.5453 172.076
-45.6142 -60.4977 -0.701286 158.012 82.9632 176.875
6.95134 22.2029 -57.6074 169.136 64.37 121.174
49.3325 20.49 -37.9745 162.326 45.8193 51.7881
-5.70356 -5.16092 63.1712 105.354 84.0532 2.19711
-1.54408 32.6269 -41.2036 148.974 144.037 176.09
-3.94036 -36.4578 6.97402 29.085 108.004 19.737
-3.60488 -17.7155 21.5901 69.6385 157.072 123.526
-25.8885 -8.50127 8.20947 85.0244 83.5444 72.6471
-7.49912 14.1961 -41.9199 104.964 136.536 96.646
66.923 -5.83125 -28.4867 161.778 143.524 38.9735
37.1917 -17.9489 -49.7583 48.3724 111.496 110.579
-4.8578 -27.1281 -15.0708 83.4943 33.5427 75.6544
-43.0523 18.0425 -62.3286 122.585 157.165 163.444
-43.3584 15.0814 -16.1323 117.941 122.513 79.2708
19.1941 9.12524 -33.3749 87.897 11.1678 32.2517
-13.8469 -51.4073 47.6625 113.937 162.858 68.0754
30.5465 -43.7647 52.544 54.1115 89.912 129.801
-55.3458 -10.6338 16.5444 36.8331 48.9324 10.6917
-28.3774 62.8695 26.9778 127.225 47.5649 154.199
55.8653 43.9228 -15.4009 40.0843 149.963 139.056
14.4219 -46.3618 -2.59978 118.157 32.5672 3.70116
20.7816 52.789 20.4404 165.585 82.4823 8.58007
2.63147 -44.1748 8.8731 0.900852 174.195 4.07207
-74.8296 -11.2827 -0.905533 175.469 92.7523 107.689
57.0308 -8.43739 -30.9099 74.481 143.867 158.783
12.6339 67.0508 -7.17286 13.0765 172.481 154.303
-42.5021 -17.558 45.2455 102.354 160.393 75.917
-46.9353 6.26079 40.3592 131.991 151.651 31.9279
-8.39711 -24.7982 60.0087 8.01204 48.4934 39.0008
-17.4 -43.008 3.14193 22.2143 123.113 145.409
-63.749 -19.4371 9.17768 161.184 71.1202 111.087
58.9529 1.65479 26.9415 72.3238 178.423 35.478
-61.2352 26.2622 39.0853 40.8443 17.3671 6.3155
-5.83023 -48.4898 -46.3934 101.439 66.945 101.398
57.3808 22.0305 38.9886 64.9567 164.762 15.1897
-19.0374 -53.3716 -12.242 168.047 67.6067 59.9053
30.9966 -6.23564 -41.5135 159.266 137.763 131.617
-57.253 -25.1549 16.275 59.2201 5.07649 122.786
50.0864 -15.6154 -54.0774 172.397 46.0747 70.4662
21.4091 37.2529 -10.8282 25.3776 26.9855 105.885
-46.8893 10.4287 39.4262 89.2656 163.896 159.041
7.98921 1.34073 74.7287 88.004 150.476 65.8953
-52.2631 1.88662 -19.4933 3.55145 95.6565 46.6222
-38.9328 -6.61303 -47.2217 7.39148 127.547 151.881
55.9333 8.22615 7.71397 6.71144 90.9854 80.2156
10.5489 -21.5749 -33.2817 66.6171 108.651 63.2098
13.9935 2.16879 14.3484 61.015 97.9357 52.636
11.9937 -38.0296 -4.75911 94.7104 86.9437 93.69
38.5981 19.2876 -5.25972 74.4131 106.663 107.068
5.24674 -37.1344 -21.7899 78.304 174.242 149.371
37.2195 -31.3025 11.9564 115.853 66.4057 92.9662
44.1981 -44.0311 -28.4039 81.6007 140.683 131.559
-56.6779 -6.95484 23.9812 129.161 5.54211 62.8057
-5.78409 37.8779 21.9377 115.484 86.9809 115.873
-47.0144 31.6161 44.8639 69.2925 7.77811 170.64
46.0413 34.4918 -40.5709 18.8454 144.475 19.3968
2.41038 -68.6368 0.839003 55.6396 8.94879 156.578
62.5863 -35.6055 -14.4016 54.6869 115.644 15.0689
-3.67131 5.25035 -31.0764 10.8603 125.161 20.8907
-46.3379 -25.036 -3.33669 173.314 108.319 113.505
19.3983 10.0025 43.0752 115.468 35.4205 21.966
-29.6216 -47.1478 -27.9482 48.4512 73.5836 49.9468
23.1444 -37.3168 -15.951 8.92035 38.6056 79.1585
-0.599596 72.5613 -13.7491 29.4387 147.7 70.747
-18.1614 49.5786 56.515 13.4615 95.8937 124.331
-62.5512 19.4695 -4.15715 76.0563 33.7675 89.3826
-57.0067 31.2613 -0.00564134 63.4849 134.416 19.0107
-8.0904 65.9428 -27.5699 120.256 46.0612 95.1012
40.2578 35.8342 -45.4497 29.8519 125.095 9.26766
46.1668 -22.3791 22.675 76.6557 177.75 2.6564
-65.5455 23.7472 -28.8762 160.989 24.6832 169.177
-3.13507 -3.75084 -59.5375 32.6173 28.9928 12.0201
5.16348 7.70975 -5.87462 69.5812 62.9024 119.665
-14.5807 -2.43601 0.9074 13.3782 151.302 24.8812
70.4225 18.9931 -9.78736 161.81 22.7395 113.31
6.81664 -19.8576 -33.0414 100.147 130.143 144.42
-36.8025 21.5446 54.8929 92.0403 142.515 174.469
-39.1085 19.2685 -36.1116 120.181 63.5516 176.575
62.7451 -20.9732 -6.11898 61.111 4.90076 72.6451
24.0276 38.0785 43.0279 49.9129 153.486 171.064
38.2383 27.4848 38.9398 52.3819 94.751 117.236
23.9278 -29.3409 11.5346 106.364 19.5349 150.307
-54.0304 -22.4192 -32.5782 21.167 104.005 24.9879
-19.2734 -19.6602 -51.011 113.065 124.184 159.107
9.31739 35.4549 -38.2837 88.5287 149.191 19.5384
-15.1605 -27.529 71.1075 148.552 7.75126 89.6353
-18.8909 -62.0387 34.5514 7.55482 50.533 45.5925
-23.373 60.8243 16.4324 89.0799 35.3252 38.5421
44.3645 20.5749 -46.1284 110.712 142.279 144.651
-70.228 16.1811 19.1498 17.4708 111.952 8.98666
36.5152 -5.6461 -68.8717 162.594 78.8606 90.8468
